-0.47074446 0.85776114 0.20747006
-0.48541301 0.84071738 0.24074808
-0.49913725 0.8225469 0.27324191
-0.51322824 0.78308439 0.35175794
-0.53364682 0.74060243 0.40872276
-0.55031848 0.69655883 0.4607009
-0.21705393 0.9310708 -0.29426
-0.27657557 0.94417304 -0.17992848
-0.31643999 0.94155508 -0.117057
-0.41288292 0.91083151 0.01749231
-0.4313516 0.90090126 0.05206105
-0.47442836 0.8696031 0.1382236
-0.54414099 0.78308505 0.30173948
-0.54502141 0.7629621 0.34812015
-0.57403994 0.72100365 0.38853034
-0.5856638 0.68901116 0.42761937
-0.28125921 0.92596394 -0.25314564
-0.31332201 0.93260956 -0.18001197
-0.35141033 0.92451221 -0.1487616
-0.37152123 0.92124563 -0.11675135
-0.39144537 0.91655809 -0.08398873
-0.41107357 0.91039985 -0.05061371
-0.46707937 0.88292015 0.05175787
-0.49272677 0.86428642 0.10304949
-0.52403933 0.83463228 0.17073469
-0.53828526 0.81797433 0.20380899
-0.55152595 0.80025226 0.23617296
-0.56374884 0.78158343 0.26770723
-0.58972871 0.73206937 0.34197906
-0.3369348 0.91475409 -0.22433479
-0.44672346 0.89345837 -0.05033657
-0.4656446 0.88502449 -0.01664844
-0.50158817 0.86380011 0.05137781
-0.54186118 0.82964975 0.1357875
-0.60422361 0.74060327 0.29452643
-0.6197769 0.67908823 0.39370885
-0.63942891 0.63273782 0.43720514
-0.31129935 0.89947879 -0.30752727
-0.39243689 0.89945835 -0.19394965
-0.43277535 0.89224154 -0.13154864
-0.49981201 0.86618513 -0.01650904
-0.54285425 0.83732474 0.06755182
-0.55861628 0.82346141 0.10109571
-0.58722389 0.79222429 0.16701946
-0.5999949 0.77504712 0.19911319
-0.61710531 0.74800414 0.24564883
-0.64944351 0.69802129 0.30270478
-0.64657474 0.67481953 0.35632566
-0.66965687 0.63708574 0.3824451
-0.3656126 0.88792968 -0.28013453
-0.47658676 0.87176418 -0.11498499
-0.51210856 0.85536897 -0.0823551
-0.53268301 0.84636438 -0.01634828
-0.5500136 0.83519524 0.01703013
-0.61126703 0.78332597 0.11596003
-0.69695485 0.5950821 0.40083274
-0.33796737 0.87058139 -0.35828036
-0.41952354 0.8724668 -0.25179705
-0.46027505 0.86699587 -0.19264126
-0.5961647 0.80312371 0.01657696
-0.60439962 0.79415774 0.06599853
-0.6503247 0.73890316 0.17822929
-0.67069143 0.70270002 0.23876606
-0.69342089 0.64467186 0.32266986
-0.39884111 0.85869735 -0.32266831
-0.52159768 0.84086859 -0.14683166
-0.57479692 0.81448257 -0.08322603
-0.58614939 0.80974317 -0.03302571
-0.66825759 0.73548305 0.11480987
-0.70385587 0.65872735 0.26636255
-0.73276681 0.58622688 0.34633294
-0.74958467 0.52393758 0.40504378
-0.78514022 0.50565684 0.35828036
-0.78853446 0.46488506 0.40321633
-0.85967869 0.45250505 0.23766698
-0.85808963 0.417391 0.30009982
-0.83623075 0.47213069 0.27997518
-0.89011031 0.40584484 0.20890008
-0.88151753 0.39632812 0.25719872
-0.95016009 0.31056529 0.03302583
-0.95366669 0.29394904 0.06682002
-0.92689753 0.37297717 0.04948914
-0.93991953 0.11397175 -0.32266355
-0.95745283 0.07333161 -0.2801314
-0.95662421 0.11920335 -0.26635414
-0.79492128 0.41858366 0.43977523
-0.81691968 0.45759907 0.35188138
-0.83172715 0.394898 0.39096791
-0.84547985 0.40675306 0.34641188
-0.83627087 0.34407735 0.42761961
-0.87116307 0.36062655 0.3338643
-0.87225848 0.31549647 0.37454271
-0.85606098 0.27601135 0.43775076
-0.89917773 0.33775517 0.27942649
-0.91617203 0.33942112 0.21474759
-0.89715993 0.29216179 0.33180237
-0.88670892 0.26276711 0.38084489
-0.8720181 0.20354035 0.44592631
-0.91623414 0.37368253 0.14683336
-0.9129082 0.27551848 0.30173862
-0.89523089 0.2259693 0.38451532
-0.93491274 0.31367108 0.16701888
-0.9315173 0.27723837 0.23617081
-0.9276219 0.25814286 0.27064362
-0.91905773 0.22874884 0.32152715
-0.90257829 0.18818231 0.38768795
-0.88076156 0.14702213 0.45054442
-0.93259192 0.34765849 0.09869882
-0.94603133 0.29553846 0.13429883
-0.94428122 0.25916624 0.203806
-0.92679018 0.19054173 0.32424733
-0.90865958 0.14954132 0.39031535
-0.88519365 0.10832062 0.45282814
-0.87170094 0.0878752 0.48245254
-0.95578247 0.27680412 0.10109672
-0.95571971 0.24047372 0.17073624
-0.94957179 0.20185508 0.24074693
-0.94415545 0.18189038 0.2754662
-0.93319345 0.15144747 0.32650369
-0.91339076 0.11020438 0.39236575
-0.87403417 0.04888208 0.48376229
-0.96573555 0.22123259 0.13709785
-0.96124893 0.18263568 0.2074682
-0.93817729 0.11163584 0.32826698
-0.91670632 0.07034704 0.39380932
-0.90396339 0.04986058 0.42513564
-0.95437366 0.29931745 -0.01657641
-0.96764565 0.2478689 0.05092848
-0.9754824 0.20145604 0.09152535
-0.97145867 0.16295169 0.17354795
-0.96220624 0.12271818 0.24395011
-0.95514792 0.10222243 0.27866963
-0.94167221 0.07127753 0.3295106
-0.90503895 0.00988482 0.42566139
-0.89037126 -0.01005206 0.45553121
-0.96408802 0.26161087 -0.04934924
-0.97371376 0.22793181 0.0171835
-0.98012 0.14287497 0.13913944
-0.97253305 0.10265039 0.20990375
-0.94362676 0.0305685 0.33021596
-0.93195009 0.01007011 0.36300042
-0.87403375 -0.04888257 0.48376304
-0.97175467 0.22271886 -0.08235664
-0.9782418 0.20768155 -0.0165099
-0.98404294 0.1713776 0.0517589
-0.98716652 0.12251531 0.10441927
-0.98337317 0.08229812 0.16360544
-0.97249132 0.05152284 0.22809891
-0.96456754 0.03084869 0.26282808
-0.91855901 -0.03014957 0.39462656
-0.88829893 -0.06912431 0.45443177
-0.98560035 0.16936703 -0.01664747
-0.9901033 0.13184538 0.05205758
-0.95504749 -0.01020821 0.29697919
-0.93080717 -0.0506441 0.36253393
-0.90145516 -0.08959375 0.42393628
-0.95622581 0.25366148 -0.14823231
-0.97269922 0.18167894 -0.14670631
-0.98268408 0.16664618 -0.08311325
-0.99152845 0.13026515 -0.01675949
-0.99461943 0.09166785 0.05228126
-0.99130678 0.05144553 0.12282082
-0.98420531 0.02066822 0.17581986
-0.97749168 -0.0206366 0.21097402
-0.96456712 -0.03084833 0.26282945
-0.94167364 -0.07127459 0.32950693
-0.91339189 -0.11020367 0.39236325
-0.8807627 -0.14702122 0.45054254
-0.98840433 0.12814446 -0.08361142
-0.99594259 0.09055346 -0.01685255
-0.9975251 0.05104582 0.05241309
-0.99257207 0.01027705 0.12295581
-0.98587841 -0.04125523 0.16403799
-0.96625793 -0.08215714 0.24497974
-0.95106268 -0.0919468 0.29569367
-0.92399937 -0.13085717 0.35984334
-0.89229983 -0.16762544 0.41959238
-0.85389721 -0.21989967 0.47240669
-0.95462632 0.21185431 -0.2108725
-0.96818978 0.14080811 -0.20839354
-0.98119324 0.1255579 -0.1477278
-0.9926613 0.08905791 -0.08398999
-0.99878132 0.05040501 -0.01691987
-0.99877787 0.01016482 0.052458
-0.99588907 -0.03077208 0.0876085
-0.97253233 -0.10265431 0.2099051
-0.94672525 -0.13223727 0.2943255
-0.91843212 -0.17011945 0.35765797
-0.88577616 -0.20558439 0.41651115
-0.98525012 0.08723181 -0.1483534
-0.99539816 0.04955037 -0.08423513
-0.99884182 0.01015452 -0.05097172
-1.00000358 -0.0100129 -0.01696163
-0.99958378 -0.03044314 0.01755671
-0.99379224 -0.07171877 0.08744716
-0.98837543 -0.09235909 0.12247626
-0.9771539 -0.12292684 0.17456491
-0.95372498 -0.15266809 0.25982076
-0.92678964 -0.19054282 0.32424837
-0.89523059 -0.22596897 0.38451621
-0.86511678 -0.26864105 0.42437246
-0.94793481 0.1703202 -0.27026045
-0.97589689 0.06620914 -0.2095494
-0.98785537 0.04852032 -0.14876042
-0.99325764 0.00999422 -0.11705414
-0.99752152 -0.07100351 0.01754038
-0.98011965 -0.1428746 0.1391432
-0.9612481 -0.18263748 0.20747057
-0.94957107 -0.2018548 0.24074972
-0.93367791 -0.2107047 0.29023355
-0.90335506 -0.24611795 0.35175794
-0.98378789 0.00980008 -0.18000308
-0.9928782 -0.02939908 -0.1169899
-0.99539775 -0.04955361 -0.08423755
-0.99644357 -0.06996832 -0.0508133
-0.99384016 -0.11121201 0.01749346
-0.9901036 -0.13184033 0.05206383
-0.98472309 -0.15233944 0.08668767
-0.96428066 -0.20218608 0.17226686
-0.9276213 -0.2581428 0.27064559
-0.91290849 -0.27551654 0.30173978
-0.89404404 -0.28257006 0.34811842
-0.86310685 -0.32313585 0.38852763
-0.84123611 -0.32785216 0.43026888
-0.96968985 0.01867934 -0.24449605
-0.98343009 -0.02872395 -0.17991981
-0.99287045 -0.10962403 -0.05061259
-0.97424692 -0.20152809 0.10304993
-0.96573448 -0.22123599 0.13710032
-0.9442817 -0.25916389 0.20380661
-0.93151629 -0.27723965 0.23617315
-0.87847894 -0.33463714 0.34197637
-0.83754003 -0.37933782 0.39403734
-0.80653596 -0.3885214 0.44619685
-0.93739772 0.04356503 -0.34632781
-0.95589775 0.00891911 -0.2946004
-0.97024679 -0.04666417 -0.23894367
-0.98381585 -0.07726987 -0.16374996
-0.98754001 -0.1076038 -0.11632727
-0.98777437 -0.14876693 -0.05033275
-0.98560077 -0.16936532 -0.01664501
-0.98185277 -0.1898462 0.01731601
-0.97331011 -0.21999313 0.06820129
-0.94588971 -0.27767187 0.16898003
-0.89917797 -0.33775514 0.27942589
-0.98265421 -0.14606279 -0.11573437
-0.97091216 -0.23781553 0.03382489
-0.95578212 -0.27680504 0.10109668
-0.94603002 -0.29554152 0.13430174
-0.91617101 -0.33942032 0.21475343
-0.85441661 -0.39992759 0.33260617
-0.81284165 -0.44000384 0.38244987
-0.78282624 -0.44733265 0.43308744
-0.92038172 0.0659363 -0.38573581
-0.93387932 -0.01755607 -0.35783973
-0.95040655 -0.05425964 -0.30712217
-0.96858793 -0.11267637 -0.22306836
-0.97109169 -0.16117886 -0.17794172
-0.97637129 -0.183869 -0.11498125
-0.97557604 -0.20440632 -0.08250399
-0.97331131 -0.2248386 -0.04957297
-0.96954972 -0.24506573 -0.01634305
-0.95366639 -0.29394987 0.06682055
-0.9227038 -0.35683176 0.14823532
-0.87411141 -0.40344304 0.27162668
-0.95073533 -0.09951721 -0.29406136
-0.95437324 -0.29931882 -0.01657739
-0.95016015 -0.31056508 0.03302786
-0.93259084 -0.34766123 0.09870028
-0.89011049 -0.40584353 0.20890217
-0.82740301 -0.4602598 0.32266906
-0.7833637 -0.48763797 0.38573667
-0.75689113 -0.50144947 0.41965765
-0.92486858 -0.07561798 -0.37336144
-0.93622667 -0.10385975 -0.33608896
-0.95144451 -0.15388726 -0.26771635
-0.95713526 -0.18425892 -0.22415257
-0.9560985 -0.23276946 -0.179911
-0.96046317 -0.24633346 -0.13099414
-0.95883375 -0.26689327 -0.09869886
-0.95576596 -0.28722331 -0.06599592
-0.92689729 -0.3729775 0.04948912
-0.90165442 -0.40733013 0.146365
-0.85222805 -0.45924494 0.25179622
-0.78397858 -0.51573765 0.34633473
-0.70768756 -0.58480203 0.39706188
-0.65032697 -0.73890257 0.17822355
-0.64446914 -0.72571015 0.24217002
-0.69176728 -0.68738884 0.22266158
-0.58614969 -0.80974299 -0.03302585
-0.55001223 -0.83519614 0.01702746
-0.59616643 -0.80312246 0.0165725
-0.56851751 -0.8202278 -0.06599586
-0.53268331 -0.8463642 -0.01634899
-0.55609381 -0.82341188 -0.11595753
-0.51460505 -0.8561945 -0.04957325
-0.49648264 -0.84243482 -0.21087779
-0.43977255 -0.88634592 -0.14723989
-0.51146919 -0.84393972 -0.162746
-0.39884058 -0.85869718 -0.32266921
-0.36560372 -0.88793403 -0.28013247
-0.40898287 -0.87296611 -0.26635903
-0.3175849 -0.85057217 -0.41966072
-0.28571355 -0.87934953 -0.38154247
-0.34711927 -0.85496086 -0.38573593
-0.66549367 -0.616485 0.42145815
-0.69905114 -0.62478548 0.34856132
-0.6530624 -0.65403491 0.38228238
-0.61284935 -0.66853136 0.42196101
-0.72287482 -0.62566435 0.29426244
-0.67472529 -0.67545736 0.29852259
-0.64811784 -0.67840093 0.34641141
-0.56452858 -0.68710387 0.45802701
-0.59838814 -0.71118754 0.36982581
-0.62287211 -0.71998024 0.30712914
-0.5486775 -0.73099726 0.40650824
-0.51172513 -0.73816246 0.4399682
-0.47300747 -0.7441479 0.47241107
-0.59382719 -0.76010889 0.26446062
-0.57494134 -0.7621069 0.29829109
-0.55510432 -0.76296282 0.33180431
-0.53441787 -0.76265645 0.36483377
-0.5999952 -0.77504694 0.1991127
-0.58239049 -0.77889121 0.23344286
-0.49155566 -0.78158325 0.38451681
-0.46924752 -0.77889031 0.41651222
-0.63224131 -0.76383281 0.13099393
-0.58722574 -0.79222327 0.16701795
-0.53216124 -0.80244887 0.27064452
-0.51188654 -0.80338544 0.3048228
-0.49078193 -0.80305284 0.33854905
-0.43516219 -0.79682547 0.4195928
-0.4119997 -0.79222 0.45054466
-0.65525627 -0.75136566 0.08235521
-0.59699792 -0.79835331 0.08322059
-0.57342023 -0.80839777 0.13430139
-0.53828567 -0.81797421 0.20380798
-0.51918197 -0.82090664 0.23862047
-0.44560978 -0.82090741 0.35765946
-0.3765648 -0.80839366 0.45282793
-0.52404279 -0.83462989 0.17073582
-0.46475095 -0.84173709 0.275464
-0.44331613 -0.84137857 0.30975887
-0.40998831 -0.83833611 0.35984394
-0.38706833 -0.834629 0.3923659
-0.34024295 -0.82345986 0.45443356
-0.31658655 -0.8161481 0.4837628
-0.54285586 -0.83732373 0.0675514
-0.52637756 -0.84431642 0.10214119
-0.50883675 -0.85010272 0.13709675
-0.47074637 -0.85776019 0.20746952
-0.45033401 -0.85952216 0.24253622
-0.35018694 -0.85009962 0.3938078
-0.45517486 -0.87355655 0.17354791
-0.403364 -0.87718862 0.26124695
-0.3813464 -0.87609887 0.29569352
-0.35878563 -0.87355536 0.32951164
-0.31252509 -0.86428648 0.39462233
-0.28907683 -0.85768706 0.42566222
-0.26558414 -0.84989667 0.45553416
-0.50158656 -0.86380088 0.05137961
-0.45774835 -0.88322747 0.10381268
-0.43875608 -0.88799828 0.13914195
-0.39816198 -0.89320999 0.20990546
-0.32067239 -0.88799626 0.33021241
-0.22360727 -0.84636009 0.48376164
-0.48396596 -0.87513059 0.01731517
-0.44030115 -0.89540446 0.06920578
-0.38150412 -0.90782398 0.17530221
-0.34952343 -0.90897042 0.22809908
-0.32740965 -0.90782279 0.26283342
-0.27841732 -0.8894456 0.36300406
-0.23192185 -0.87512636 0.42513815
-0.18580253 -0.85618949 0.48245373
-0.49298149 -0.86282855 -0.11480795
-0.48127487 -0.87534583 -0.04998755
-0.44899741 -0.89357877 0.0174168
-0.39326799 -0.91145825 0.12247799
-0.28542054 -0.91145855 0.29697683
-0.23947324 -0.90089923 0.36253384
-0.19335948 -0.88502008 0.42393646
-0.14796863 -0.86465901 0.4804242
-0.44672453 -0.89345771 -0.05033717
-0.41288382 -0.91083115 0.01749292
-0.37531191 -0.92298877 0.08744304
-0.33602583 -0.93402922 0.12288113
-0.30426973 -0.93643218 0.1759011
-0.29110524 -0.92925352 0.22840868
-0.24605982 -0.92298818 0.29658234
-0.20029664 -0.91082859 0.36147612
-0.15476301 -0.89345562 0.42207667
-0.0918475 -0.87497842 0.47608978
-0.42730713 -0.90042895 -0.08361357
-0.39388502 -0.91921502 -0.01685362
-0.35680315 -0.93292743 0.05241101
-0.29695132 -0.94716686 0.12295469
-0.25151449 -0.94081593 0.22809854
-0.20644747 -0.93292677 0.29569608
-0.16108166 -0.9192121 0.3598434
-0.11631614 -0.90042669 0.41959187
-0.43310204 -0.87729037 -0.2083998
-0.39144626 -0.91655737 -0.08399174
-0.35657936 -0.93432105 -0.01692225
-0.31830725 -0.94675279 0.05245842
-0.25740245 -0.95868665 0.12281974
-0.22496776 -0.95868593 0.17530422
-0.21166952 -0.95073831 0.22740255
-0.1667912 -0.94125056 0.29433122
-0.12201851 -0.92605078 0.35765734
-0.07819902 -0.90595168 0.41651219
-0.01816355 -0.88383418 0.46813375
-0.38742295 -0.91007149 -0.1483544
-0.35472384 -0.93136597 -0.08424243
-0.31854111 -0.94796574 -0.01696283
-0.27993569 -0.96006811 0.01755312
-0.25970399 -0.964477 0.05241308
-0.21758556 -0.96854132 0.12247778
-0.16302216 -0.96447611 0.20885082
-0.14089708 -0.96006703 0.24253263
-0.11877204 -0.95415229 0.27546641
-0.09676477 -0.94681638 0.30750877
-0.08329413 -0.93136472 0.35495082
-0.04057385 -0.91006833 0.41287416
-0.45491034 -0.84890741 -0.27026424
-0.38205388 -0.90028512 -0.20935421
-0.35140932 -0.92451239 -0.148763
-0.31729355 -0.94476545 -0.08435595
-0.28002393 -0.95884031 -0.05093388
-0.22017109 -0.97426689 0.05227853
-0.16699308 -0.97629976 0.13914229
-0.14522451 -0.97426623 0.17354916
-0.03682799 -0.94155443 0.33538243
-0.00594741 -0.92579931 0.37886953
0.03382624 -0.90115148 0.43290275
-0.33693403 -0.91475481 -0.2243326
-0.30492431 -0.93847179 -0.16424082
-0.27885389 -0.95336837 -0.11699302
-0.24137291 -0.9692958 -0.05081562
-0.22164115 -0.97518033 -0.01685256
-0.18056722 -0.98238641 0.05205891
-0.14882396 -0.9836033 0.10381422
-0.0840462 -0.97517985 0.20578131
-0.06249986 -0.96929508 0.2386176
-0.04114161 -0.96199113 0.27064505
-0.02007396 -0.95336729 0.30173823
-0.24092449 -0.96367919 -0.11674928
-0.18250321 -0.98325491 -0.01676231
-0.14109315 -0.98883975 0.0517556
-0.08802438 -0.98683363 0.13709839
-0.06663083 -0.98325354 0.17073758
0.02921184 -0.93866342 0.34408355
0.07581698 -0.920883 0.38325411
0.10421288 -0.88746786 0.44923124
-0.3311038 -0.87805384 -0.34633395
-0.30386719 -0.90635711 -0.29460338
-0.2909649 -0.92647946 -0.23933792
-0.24816704 -0.94933188 -0.19451232
-0.20282805 -0.97245783 -0.11632776
-0.18355884 -0.97962749 -0.08361404
-0.14349167 -0.98969871 -0.01664533
-0.10193789 -0.99365497 0.05137534
-0.0704312 -0.99246329 0.10213826
-0.00730393 -0.97962701 0.20157532
0.0133363 -0.97245765 0.23343971
0.03363424 -0.96398455 0.26445842
0.06298966 -0.94933027 0.30896184
0.12757353 -0.90602481 0.40388536
0.15244968 -0.88536608 0.43977311
-0.25366867 -0.92979372 -0.26724771
-0.20225334 -0.96300679 -0.17896919
-0.14517176 -0.98608494 -0.08311643
-0.10477252 -0.99454069 -0.01651167
-0.05299206 -0.99649149 0.06755159
-0.01126071 -0.99105573 0.13429968
0.00941366 -0.9860844 0.16702017
0.13409823 -0.92378604 0.35945335
-0.25734404 -0.90739977 -0.33303761
-0.2094713 -0.94507182 -0.25209928
-0.15565188 -0.97472543 -0.16231851
-0.08846841 -0.99301767 -0.08235817
-0.06653134 -0.99782628 -0.01635143
-0.03578051 -0.99897712 0.03347656
0.01371669 -0.99678791 0.08322167
0.07406853 -0.98123419 0.17990898
0.09481986 -0.96592182 0.24217001
0.13180089 -0.94507253 0.30009887
0.19098926 -0.90024537 0.39157137
0.21347302 -0.87934929 0.42618829
-0.21147265 -0.91721952 -0.33872166
-0.16470389 -0.95743322 -0.23767243
-0.10876985 -0.98339593 -0.14636588
-0.01024421 -1.00015759 -0.01657821
0.06252076 -0.98957622 0.13099328
0.19829766 -0.91635454 0.34856406
-0.27004519 -0.85809487 -0.43695295
-0.22878507 -0.88908279 -0.39706728
-0.1651655 -0.94119722 -0.29570851
-0.1109224 -0.97195762 -0.20890246
-0.05423993 -0.98780996 -0.14823751
-0.01371815 -0.99678767 -0.08322341
0.02875735 -0.99962586 0.01633783
0.0884655 -0.99301809 0.08235615
0.12791912 -0.97591686 0.17758323
0.15560935 -0.96272022 0.22266346
0.19061808 -0.94119805 0.27997556
0.24335408 -0.88654059 0.3937698
0.31758398 -0.85057384 0.41965795
0.59699726 -0.79835373 -0.08322011
0.64033282 -0.76815218 -0.01634561
0.61083138 -0.79181057 -0.01633573
0.67069107 -0.70270109 -0.23876393
0.7086817 -0.67905754 -0.19311444
0.65584481 -0.72979945 -0.19383802
0.68684709 -0.66435975 -0.29570693
0.72496682 -0.64145291 -0.2520999
0.70768833 -0.58479935 -0.39706451
0.74520689 -0.56311953 -0.35784253
0.70154494 -0.61435485 -0.36146295
0.37038082 -0.82203341 0.43309042
0.35771447 -0.8562336 0.37336743
0.41291946 -0.82564682 0.38515875
0.398839 -0.85869908 0.32266623
0.43210581 -0.79877907 0.41894013
0.45615783 -0.82576716 0.3326039
0.44036627 -0.85732353 0.26771984
0.47666141 -0.79887712 0.36728302
0.48554206 -0.77000058 0.41472715
0.50663668 -0.72750568 0.46332797
0.49937442 -0.82176352 0.27564168
0.44993174 -0.86866552 0.20805147
0.49648377 -0.8424347 0.21087572
0.53639764 -0.78421724 0.31299001
0.5281961 -0.76416528 0.37083593
0.55402231 -0.72450632 0.41088718
0.5215975 -0.84086883 0.14683077
0.55170703 -0.81013095 0.19911067
0.5608049 -0.7945748 0.23344052
0.56912601 -0.77767777 0.26770392
0.57997304 -0.75008601 0.31837842
0.58616453 -0.730093 0.35175753
0.59576887 -0.68696755 0.41651025
0.5991661 -0.66406459 0.44761172
0.60163617 -0.64044255 0.47769928
0.57198644 -0.80329514 0.1670185
0.61482644 -0.70453262 0.3549515
0.62794644 -0.61254954 0.4804205
0.51210743 -0.85536939 0.08235672
0.57479894 -0.81448162 0.08322226
0.5916357 -0.79516351 0.1343009
0.6115998 -0.76470858 0.2038075
0.62029868 -0.74744105 0.23861887
0.62804902 -0.72888654 0.27324235
0.634808 -0.70911378 0.30751032
0.64303106 -0.67747271 0.35765779
0.64722168 -0.65507877 0.39031628
0.65036196 -0.63185543 0.42207977
0.65357 -0.5834648 0.48245224
0.63184685 -0.75630558 0.17073426
0.67662948 -0.60234749 0.42393452
0.67837715 -0.55329126 0.48376074
0.5795908 -0.81516534 0.01657633
0.62859166 -0.77503282 0.06755311
0.64032966 -0.76152581 0.10214067
0.65125936 -0.7466256 0.13710092
0.67031342 -0.71276528 0.20747037
0.67829633 -0.69389826 0.24253261
0.68259525 -0.67187577 0.28842479
0.69338369 -0.64176202 0.32826656
0.69741327 -0.61914551 0.36147749
0.70201927 -0.57167286 0.42512983
0.70223403 -0.52215385 0.48433352
0.64569938 -0.76308513 0.03382436
0.69014949 -0.70283604 0.17354912
0.72327018 -0.58808702 0.36253515
0.72638333 -0.53996652 0.42565739
0.67847842 -0.72982687 0.08609975
0.71030819 -0.69264448 0.12749273
0.72443718 -0.65321845 0.22148353
0.73645592 -0.6239168 0.26225537
0.74158162 -0.60208672 0.29658371
0.74804771 -0.55593055 0.36299786
0.73745263 -0.49919671 0.45533833
0.64053643 -0.76374358 -0.0821245
0.66934186 -0.74301434 -0.01650361
0.69537288 -0.71705478 0.05175751
0.74550384 -0.64336163 0.17530058
0.76665276 -0.56961876 0.29697591
0.76085299 -0.51552403 0.39462328
0.75927967 -0.46620584 0.45443121
0.65382493 -0.74815184 -0.11450282
0.68378168 -0.72821563 -0.04999142
0.71109802 -0.70315093 0.01741739
0.7349562 -0.67279619 0.08713723
0.76468223 -0.63188601 0.12862174
0.77531922 -0.60158998 0.19337919
0.78170919 -0.58067703 0.22840747
0.78137869 -0.52992046 0.33021209
0.78298092 -0.48191509 0.3938067
0.77980852 -0.43266851 0.45282564
0.68014133 -0.71871978 -0.146709
0.69705325 -0.71242875 -0.08311914
0.72559381 -0.68819416 -0.01676445
0.75078237 -0.65878457 0.05227693
0.79848474 -0.54199958 0.26282918
0.80372733 -0.49583337 0.32950863
0.80372733 -0.44771689 0.39236531
0.7989704 -0.39875263 0.45054355
0.72431576 -0.68463844 -0.08361599
0.75250876 -0.65865934 -0.01685439
0.77701235 -0.62762547 0.0524122
0.79697043 -0.59172928 0.12295424
0.81680125 -0.55518115 0.15822321
0.8144089 -0.54064822 0.21080229
0.83001095 -0.50148594 0.24497569
0.82347423 -0.48462814 0.29569387
0.8244496 -0.43724468 0.35984096
0.82041562 -0.3888647 0.41959202
0.73569053 -0.66751248 -0.11632925
0.76501417 -0.64229935 -0.05081608
0.79078841 -0.612167 0.01755246
0.81400466 -0.57884121 0.05245595
0.82377928 -0.56047273 0.08760945
0.84224832 -0.51020402 0.17530057
0.84713537 -0.48858953 0.20990303
0.85258561 -0.44341826 0.27727914
0.8439908 -0.42598775 0.32650411
0.84081489 -0.37827757 0.38768372
0.84068561 -0.31379029 0.44210383
0.74580956 -0.64968777 -0.14835672
0.77616811 -0.62516797 -0.08424043
0.80313605 -0.59588593 -0.01696116
0.84615272 -0.52611113 0.08744294
0.8572188 -0.49602118 0.13984136
0.86954051 -0.43067476 0.24253131
0.86178917 -0.39059797 0.32424575
0.85708231 -0.34338322 0.38451314
0.75877887 -0.62215114 -0.19451371
0.78251904 -0.60484767 -0.14891124
0.80047768 -0.59371048 -0.08435898
0.83205312 -0.55470848 -0.02272858
0.84874809 -0.52888346 0.01753433
0.87064946 -0.48112133 0.104417
0.88170779 -0.43917882 0.17354381
0.88502109 -0.41724536 0.20746657
0.88729173 -0.37206885 0.27324113
0.87799102 -0.35514483 0.32152292
0.8718152 -0.30861315 0.38083881
0.86750263 -0.24629876 0.43289652
0.80573541 -0.57354313 -0.14894976
0.82053828 -0.55981058 -0.11699216
0.83442348 -0.54498506 -0.08424439
0.86940426 -0.49418893 0.01748907
0.87850904 -0.47529933 0.05205855
0.89496255 -0.42465854 0.13822035
0.90254265 -0.35896501 0.23861735
0.90050578 -0.31369013 0.30173799
0.89754891 -0.29096818 0.33179933
0.89112133 -0.25745147 0.37453517
0.72828639 -0.60600036 -0.3208389
0.75174761 -0.60311061 -0.26724291
0.78556246 -0.58228236 -0.21013901
0.85542721 -0.51142162 -0.0839913
0.86768693 -0.49490231 -0.05061713
0.89684355 -0.43975303 0.05175707
0.90377015 -0.41973802 0.08609807
0.91454256 -0.36720681 0.17073269
0.91627634 -0.3453587 0.20380394
0.91548747 -0.30095148 0.26770008
0.88841945 -0.18865052 0.4189631
0.7766912 -0.56429088 -0.28088623
0.81188124 -0.54308069 -0.21529984
0.84134299 -0.51575667 -0.16375367
0.88656926 -0.46024379 -0.05033721
0.8969208 -0.44229686 -0.01664804
0.92212617 -0.37366706 0.10213977
0.92603123 -0.35270315 0.13578339
0.9289844 -0.28781912 0.23343919
0.92233258 -0.23345125 0.30895939
0.91174197 -0.19042896 0.36477646
0.8934927 -0.13832349 0.42792541
0.80589831 -0.52857745 -0.26724371
0.87457275 -0.46745211 -0.13155015
0.91348839 -0.40697366 -0.01650734
0.92172831 -0.38792846 0.01718032
0.92853868 -0.36823016 0.05092492
0.94073331 -0.29575887 0.16701585
0.94096863 -0.27435675 0.19910894
0.93738788 -0.23137124 0.26093984
0.78346789 -0.52514654 -0.33303675
0.83408982 -0.49125624 -0.25209999
0.85717857 -0.47123775 -0.20851937
0.89797819 -0.42513856 -0.11498587
0.91707802 -0.3909975 -0.08235575
0.94431376 -0.32273477 0.06681994
0.94813544 -0.30232304 0.09992457
0.9504981 -0.28158942 0.13265884
0.95462573 -0.2118569 0.21087256
0.94793588 -0.17032045 0.27025637
0.93375301 -0.14627001 0.32753229
0.91947156 -0.10656412 0.37911803
0.90228051 -0.06870335 0.42618325
0.8107903 -0.48991749 -0.32072285
0.88198102 -0.4308646 -0.19264154
0.93373662 -0.35502347 -0.04935236
0.94181621 -0.33624563 -0.01633857
0.95437294 -0.29931954 0.01657715
0.96068686 -0.225647 0.16274369
0.79268211 -0.48244315 -0.37336639
0.84409487 -0.44792518 -0.29570621
0.86765009 -0.42797258 -0.25360733
0.91623449 -0.37368259 -0.14683095
0.96408778 -0.26161131 0.0493507
0.96712339 -0.24138081 0.08211769
0.97293878 -0.20222162 0.11480989
0.96818864 -0.14080803 0.20839846
0.95662397 -0.11920493 0.26635417
0.94768262 -0.09007871 0.30713761
0.93241173 -0.0524006 0.35827544
0.91439134 -0.01671249 0.40504009
0.42682889 0.88383573 0.19311532
0.49587026 0.86466396 0.08250143
0.55823815 0.82921958 -0.0334822
0.60345232 0.78650087 -0.13266172
0.62259895 0.7618565 -0.18063782
0.64447165 0.72570878 -0.2421675
0.68123525 0.62666112 -0.37911561
0.68957925 0.58592576 -0.42618534
0.27188128 0.89359868 0.35784099
0.31129798 0.89947951 0.30752635
0.24208614 0.92065781 0.30712259
0.34129113 0.90132415 0.26724637
0.28126171 0.92596287 0.25314632
0.20946939 0.94507211 0.25209984
0.36453342 0.90767497 0.20954946
0.31103432 0.9270488 0.21013699
0.24816656 0.94933236 0.1945107
0.18329331 0.96084517 0.20851979
0.38742083 0.9100728 0.14835241
0.35141352 0.92451066 0.1487637
0.3147285 0.93760747 0.14894739
0.27754462 0.949287 0.14891022
0.22149262 0.96398526 0.14835507
0.17432001 0.97621781 0.13155152
0.40750283 0.90595502 0.11633068
0.46215978 0.88308918 0.08311832
0.42730871 0.900428 0.08361631
0.35472137 0.93136704 0.08424009
0.31729567 0.94476467 0.08435739
0.26992455 0.95893371 0.08995245
0.22205247 0.97159719 0.08398702
0.37446272 0.92605263 0.05081223
0.20255624 0.97815156 0.05061268
0.16375287 0.98540062 0.05033909
0.12515506 0.99105579 0.04999108
0.46564549 0.88502413 0.01664372
0.43029204 0.90274394 0.01676144
0.39388692 0.91921413 0.01685571
0.33783564 0.94126332 0.01697362
0.29949608 0.95415378 0.01696057
0.26070136 0.96547377 0.01692235
0.10477458 0.99454063 0.01650562
0.0665319 0.99782622 0.01634659
0.5176729 0.85562038 -0.01718234
0.48396638 0.87513041 -0.01731274
0.240725 0.97064006 -0.0175415
0.20134191 0.97956508 -0.01749348
0.16198698 0.98683423 -0.01741753
0.43135124 0.90090144 -0.05206168
0.39454052 0.91761041 -0.05227787
0.35679856 0.93292904 -0.05241329
0.31830999 0.94675189 -0.05245904
0.27925092 0.95900226 -0.0524169
0.14109173 0.98883981 -0.05175775
0.07384851 0.99688166 -0.0338234
0.5428555 0.83732384 -0.06755292
0.47577545 0.87709963 -0.06875417
0.23888996 0.96731538 -0.08744278
0.1889551 0.97786969 -0.09281886
0.10984471 0.98999208 -0.09152795
0.0529903 0.99649149 -0.06755256
0.5263806 0.8443144 -0.1021415
0.45775148 0.88322568 -0.10381483
0.39326519 0.9114598 -0.12247483
0.35526159 0.92689043 -0.12281706
0.30698043 0.94478595 -0.11707645
0.03209645 0.99454027 -0.10109663
0.54186088 0.82965004 -0.13578698
0.47443476 0.86959988 -0.13822258
0.41951934 0.89332205 -0.16289474
0.24670658 0.95909786 -0.140319
0.16699181 0.97629982 -0.13914292
0.08802508 0.98683327 -0.13710065
0.01125814 0.99105531 -0.13430205
0.55638182 0.81378603 -0.1689816
0.49027118 0.85460585 -0.17226535
0.34260076 0.92089045 -0.18749031
0.26477292 0.94838369 -0.1757516
0.18504855 0.96731454 -0.17456554
0.10568992 0.97956473 -0.17226395
0.0282099 0.98539984 -0.16898078
0.56989986 0.79682839 -0.20157768
0.50520259 0.83833736 -0.2057822
0.43501759 0.87609923 -0.20885089
0.38759005 0.89357764 -0.22740307
0.28243816 0.93602556 -0.21097592
0.2029008 0.95665479 -0.20990513
0.12334477 0.97063941 -0.20746925
0.04531701 0.97815096 -0.20380892
-0.02984721 0.97969431 -0.19911335
0.58239061 0.77889121 -0.23344284
0.51917797 0.82090968 -0.2386191
0.4503302 0.85952413 -0.24253581
0.36580381 0.89321113 -0.26225698
0.30802965 0.91454327 -0.26296514
0.26873034 0.92688942 -0.26283213
0.22907849 0.93763632 -0.26225671
0.18927325 0.94675165 -0.26124555
0.14089613 0.96006715 -0.2425326
0.06249872 0.96929491 -0.23861837
-0.01333818 0.97245711 -0.23344158
-0.09482126 0.96592212 -0.24216788
0.59383118 0.76010633 -0.26445937
0.53216624 0.80244589 -0.2706435
0.46475384 0.84173423 -0.27546802
0.41832125 0.85952371 -0.29432845
0.3434577 0.89134133 -0.2965824
0.11876903 0.95415276 -0.27546591
0.04114154 0.96199101 -0.27064541
-0.03363613 0.96398419 -0.26445937
0.6319716 0.71870703 -0.2904819
0.57494038 0.76210678 -0.29829329
0.51188529 0.80338496 -0.3048259
0.46761379 0.82254583 -0.32425055
0.39608714 0.8577612 -0.32826671
0.32067102 0.88799512 -0.33021668
0.26252708 0.90688723 -0.33021721
0.22320473 0.91760808 -0.32951349
0.18374129 0.92675686 -0.32826716
0.14433885 0.93431973 -0.3265028
0.10517792 0.94031066 -0.32424691
0.05810369 0.9508304 -0.30482545
-0.0171731 0.95449799 -0.29829639
-0.08071583 0.94859213 -0.3071278
0.64438814 0.68900961 -0.33260536
0.58973092 0.73206824 -0.3419776
0.54502028 0.7629624 -0.34812152
0.51323074 0.78308344 -0.35175654
0.44561037 0.82090676 -0.35766047
0.37333527 0.85460365 -0.36147699
0.29756764 0.88322425 -0.36300108
0.045081 0.93519562 -0.35175979
-0.01052966 0.93846935 -0.34618992
0.4915579 0.78158069 -0.3845191
0.4230195 0.81797314 -0.39031446
0.35018396 0.85009867 -0.39381254
0.25518149 0.88291675 -0.39462674
0.21637903 0.89357668 -0.39380935
0.17744525 0.90273976 -0.39236808
0.13856819 0.91039544 -0.39032036
0.09994354 0.91655344 -0.38768971
0.06173119 0.92124218 -0.3845188
-0.08393759 0.92647856 -0.36728677
-0.13409823 0.92378634 -0.3594524
0.63259417 0.66898328 -0.39096862
0.57810026 0.7106806 -0.40169567
0.52283192 0.73975486 -0.42437801
0.46924797 0.778889 -0.41651419
0.39996111 0.81378204 -0.42208177
0.32676363 0.84431219 -0.42513394
0.27027431 0.86379707 -0.42566106
0.00359217 0.91282904 -0.40872392
-0.04996063 0.91475147 -0.40169618
0.4464173 0.77504367 -0.44761252
0.37656271 0.80839491 -0.45282751
0.30319414 0.8373186 -0.45534348
0.20876266 0.86618012 -0.45443526
0.17052391 0.87534148 -0.45282841
0.1323486 0.8830862 -0.45054346
0.09440926 0.88941956 -0.44761345
0.03865056 0.89650458 -0.44210631
-0.12845249 0.90176994 -0.41316214
-0.19098783 0.90024537 -0.39157212
0.64374709 0.62666142 -0.43977234
0.59233731 0.66718096 -0.45229769
0.53992051 0.69496989 -0.47553423
0.47830784 0.73250765 -0.48509282
0.41187161 0.76726866 -0.49228585
0.3529478 0.80188137 -0.48245108
0.261208 0.83519256 -0.4843345
0.22360361 0.84636134 -0.48376125
-0.03578245 0.88699752 -0.46070042
-0.08704302 0.88792896 -0.45229709
-0.16168745 0.87805194 -0.45104042
-0.21347305 0.87934875 -0.42618951
0.32932726 0.79415023 -0.51108742
0.28144053 0.80311775 -0.52582133
0.16287164 0.8451916 -0.50937176
0.12544455 0.85301042 -0.50691813
0.07006935 0.86242795 -0.50197017
-0.00238281 0.87032133 -0.49311113
0.67328322 0.57417852 -0.46608907
0.61965281 0.6102221 -0.4941496
0.56679106 0.64939839 -0.50754809
0.49967539 0.68299967 -0.53336871
0.43539092 0.7187134 -0.54273343
0.36670017 0.75136113 -0.54925495
0.2326 0.80973911 -0.53904134
0.18262602 0.81447667 -0.55133963
-0.06019846 0.85797191 -0.5104354
-0.11022465 0.85869545 -0.50104165
-0.21358784 0.84476119 -0.49167445
-0.23331311 0.85057157 -0.47174278
-0.73149401 0.62210065 0.28013289
-0.70868373 0.67905575 0.19311343
-0.65526801 0.75399673 0.0495751
-0.64033264 0.76815236 0.01634969
-0.51179278 0.83298767 -0.21181141
-0.47002664 0.84018463 -0.27162987
-0.39556241 0.84212613 -0.36689436
-0.36467671 0.83959073 -0.4032203
-0.76442713 0.54419029 0.34606388
-0.76119578 0.57547331 0.29967207
-0.79923034 0.52461803 0.29429507
-0.77351826 0.58507872 0.24449567
-0.80177039 0.54793555 0.23923516
-0.83069396 0.51035136 0.22385734
-0.75060487 0.62717694 0.20954944
-0.79014027 0.58618414 0.18000604
-0.820476 0.54823977 0.16411632
-0.85337323 0.48994198 0.17896745
-0.87892449 0.44923285 0.16231427
-0.69338721 0.70565999 0.14689662
-0.74580961 0.64968777 0.14835688
-0.7706725 0.61989939 0.14876367
-0.73568904 0.66751426 0.11632776
-0.80944031 0.57573152 0.117056
-0.84206426 0.52692521 0.11674753
-0.86218721 0.49340218 0.11633254
-0.8979795 0.42513546 0.11498672
-0.7243132 0.68464154 0.08361488
-0.776169 0.62516695 0.08423938
-0.80047637 0.59371245 0.08435688
-0.87496018 0.47729355 0.08360916
-0.90940738 0.40805548 0.08250154
-0.68378294 0.7282145 0.04999167
-0.71168363 0.70095348 0.05033926
-0.76501369 0.64230007 0.05081517
-0.82538158 0.56261295 0.05093701
-0.84726721 0.52908748 0.05081531
-0.88657075 0.46024075 0.05033936
-0.75250834 0.65865976 0.01685358
-0.80313629 0.59588569 0.0169597
-0.85896343 0.51213598 0.01685158
-0.89692122 0.44229582 0.01664805
-0.68274611 0.73070794 -0.01731424
-0.71109873 0.70315021 -0.01741738
-0.73866427 0.67413759 -0.01749386
-0.79078662 0.61216921 -0.01755452
-0.82657546 0.5629102 -0.01755331
-0.86940581 0.49418619 -0.01749041
-0.90592647 0.42352521 -0.01731801
-0.92172849 0.38792759 -0.01718557
-0.93588656 0.35239533 -0.01703071
-0.64569771 0.76308674 -0.03382151
-0.77701181 0.62762612 -0.05241423
-0.83701992 0.54503143 -0.05241495
-0.87850803 0.47530094 -0.05205942
-0.62858868 0.77503514 -0.06755335
-0.68714684 0.72352982 -0.06875468
-0.73495501 0.6727978 -0.08713499
-0.76184118 0.64215678 -0.08744408
-0.79996139 0.59397298 -0.08761948
-0.84615183 0.52611256 -0.08744349
-0.88620359 0.45555431 -0.08668923
-0.91673601 0.39411274 -0.06819864
-0.94431484 0.32273158 -0.06681986
-0.64032918 0.76152605 -0.10214221
-0.69854724 0.70827669 -0.10381473
-0.81444895 0.56624609 -0.12885492
-0.85390228 0.50622815 -0.12247652
-0.89244378 0.43504044 -0.12119326
-0.92212814 0.37366268 -0.10213848
-0.94813544 0.30232185 -0.09992763
-0.59163612 0.79516315 -0.13430062
-0.65125757 0.74662697 -0.13710092
-0.7089529 0.69168854 -0.13914411
-0.76333398 0.6309154 -0.14031872
-0.86448175 0.47612354 -0.16288988
-0.91133523 0.38865972 -0.13710091
-0.93907148 0.31695926 -0.13429879
-0.57198536 0.80329579 -0.16701889
-0.63184381 0.75630748 -0.17073674
-0.69014919 0.70283681 -0.1735473
-0.74550468 0.64335996 -0.17530389
-0.78409058 0.59522182 -0.17582038
-0.82015055 0.5448764 -0.17574935
-0.89896351 0.40321445 -0.17226453
-0.92845482 0.33133206 -0.16897923
-0.58171946 0.78824133 -0.20157638
-0.64119154 0.73953533 -0.20578273
-0.69879359 0.68445456 -0.2088504
-0.75313759 0.623577 -0.21061429
-0.80090821 0.55638945 -0.2225851
-0.84713435 0.48859066 -0.20990455
-0.88501889 0.41724864 -0.20746906
-0.91627526 0.34535959 -0.20380729
-0.94096804 0.27435711 -0.19911151
-0.5608021 0.79457581 -0.23344368
-0.62029791 0.74744111 -0.23862056
-0.67829823 0.69389522 -0.24253596
-0.70961094 0.65468711 -0.26124576
-0.75716311 0.60100394 -0.25702369
-0.83001065 0.50148469 -0.2449787
-0.86954004 0.43067366 -0.24253485
-0.90254343 0.35896388 -0.23861627
-0.92898566 0.2878139 -0.23344092
-0.52891874 0.80177575 -0.27942619
-0.5987283 0.75408477 -0.27064529
-0.65692455 0.70211327 -0.27546743
-0.71537781 0.63340855 -0.29569793
-0.76665032 0.56962198 -0.29697621
-0.79473394 0.52679896 -0.30238405
-0.82347167 0.48463202 -0.29569462
-0.84992778 0.44155878 -0.28842828
-0.88729006 0.37207237 -0.27324149
-0.91548651 0.3009522 -0.26770297
-0.9310587 0.23794192 -0.27784985
-0.57660896 0.75949478 -0.30174133
-0.60907346 0.72527283 -0.32153046
-0.6377877 0.69890767 -0.32424933
-0.66594779 0.67104429 -0.32650304
-0.71993375 0.611166 -0.32950833
-0.87057412 0.38460988 -0.30750972
-0.90050358 0.31369632 -0.30173859
-0.4561601 0.82576418 -0.33260828
-0.51400399 0.78708816 -0.34197548
-0.55719757 0.7541151 -0.34812149
-0.67061228 0.64898026 -0.35984632
-0.7356832 0.57227749 -0.36286709
-0.75988102 0.53964293 -0.36299828
-0.78280693 0.50614303 -0.362533
-0.8043564 0.47194946 -0.36147851
-0.82444698 0.43724689 -0.35984433
-0.84302229 0.40220943 -0.35765672
-0.86004359 0.36702153 -0.35494855
-0.87549609 0.33186278 -0.35175538
-0.88938951 0.29689568 -0.3481186
-0.90740079 0.24562511 -0.34197548
-0.92631233 0.17865689 -0.33260193
-0.5629074 0.73378044 -0.38084581
-0.59143054 0.70901912 -0.38451815
-0.6195882 0.6827668 -0.38768825
-0.67416847 0.62603921 -0.39236531
-0.70028359 0.59573781 -0.39380726
-0.44075915 0.80836034 -0.39096722
-0.50832647 0.76874715 -0.38853043
-0.62335312 0.66009498 -0.41959584
-0.71417737 0.55612767 -0.42550752
-0.73800278 0.52397168 -0.4256601
-0.7606284 0.49100134 -0.42513347
-0.78195542 0.45737925 -0.4239344
-0.8019048 0.42327547 -0.42207813
-0.82041466 0.38886669 -0.41959214
-0.83744931 0.35432306 -0.41650891
-0.86024892 0.3030265 -0.41088337
-0.88820481 0.2458899 -0.3885282
-0.90828437 0.17949019 -0.37827745
-0.91962439 0.11396097 -0.37640235
-0.47430521 0.76991624 -0.42762169
-0.53032929 0.72648126 -0.43774918
-0.57170445 0.69013399 -0.44406939
-0.62613308 0.63664478 -0.4505412
-0.65246701 0.60793841 -0.45282695
-0.67801523 0.57805336 -0.45443484
-0.87328297 0.22922437 -0.43026716
-0.88841778 0.18865061 -0.41896656
-0.89349097 0.13832739 -0.42792785
-0.39705998 0.80588728 -0.43977672
-0.57586163 0.65568721 -0.48901066
-0.67837477 0.55329329 -0.48376167
-0.70223075 0.52215672 -0.48433506
-0.73584187 0.47419912 -0.48375925
-0.75687367 0.44128096 -0.4824501
-0.77661604 0.40792242 -0.48042116
-0.79501331 0.37428311 -0.47769818
-0.82007062 0.3240042 -0.4724085
-0.8484593 0.25703278 -0.4633238
-0.90227938 0.06870259 -0.42618585
-0.32301497 0.83385926 -0.44809398
-0.42810753 0.76861757 -0.47592124
-0.48240519 0.72793597 -0.4878467
-0.52283078 0.69386649 -0.4954806
-0.60286635 0.61637408 -0.50691634
-0.62855768 0.58804286 -0.50936872
-0.69974858 0.4843151 -0.52581906
-0.86329299 0.16964298 -0.47591653
-0.88383567 0.09249131 -0.45882684
-0.36253557 0.79496151 -0.48693204
-0.52221072 0.6618951 -0.53837895
-0.62648296 0.55158395 -0.55133867
-0.66412801 0.51837844 -0.53903949
-0.71975589 0.43912759 -0.53801465
-0.74008572 0.40633273 -0.53619272
-0.76821178 0.35678661 -0.53220069
-0.80103946 0.29025543 -0.52415001
-0.82849896 0.22448881 -0.51360923
-0.86030173 0.09957836 -0.50052029
-0.88104165 0.04094336 -0.47173867
-0.74802172 -0.54346442 0.38153937
-0.81770223 -0.50344473 0.28013134
-0.87892348 -0.44923449 0.1623157
-0.90940642 -0.40805748 0.08250134
-0.93588656 -0.35239524 -0.0170304
-0.93013275 -0.16222857 -0.33038965
-0.90658587 -0.07761016 -0.41510847
-0.74155682 -0.58283466 0.33303407
-0.77858377 -0.55464011 0.29460359
-0.79547894 -0.55485165 0.2444967
-0.76888186 -0.59320229 0.23923708
-0.73369294 -0.63680851 0.23834927
-0.84617788 -0.49700728 0.19394641
-0.81802857 -0.53580499 0.20989574
-0.80166453 -0.57032299 0.18000405
-0.77872813 -0.60128206 0.17992614
-0.75469363 -0.63128018 0.17957757
-0.72509545 -0.66954583 0.16314873
-0.82771295 -0.54138893 0.1487658
-0.68787843 -0.71442848 0.13076642
-0.86218792 -0.49340251 0.11632638
-0.84206533 -0.52692437 0.11674434
-0.8094396 -0.57573277 0.11705402
-0.78597605 -0.60738134 0.11699317
-0.76135081 -0.63801771 0.11675074
-0.89296335 -0.44278038 0.08311905
-0.87495965 -0.47729349 0.083616
-0.75073576 -0.65551853 0.08398538
-0.72431535 -0.68463951 0.0836127
-0.84726858 -0.52908558 0.05081202
-0.81952047 -0.57069397 0.05668937
-0.79013944 -0.61112046 0.05093377
-0.71168417 -0.70095295 0.0503373
-0.89692146 -0.44229546 0.01664771
-0.87873477 -0.47741255 0.01676187
-0.85896283 -0.51213694 0.01685488
-0.77840585 -0.62784481 0.01691965
-0.752509 -0.65865904 0.01685092
-0.69781655 -0.71634161 0.01664701
-0.66934079 -0.74301517 0.01650839
-0.64033341 -0.76815164 0.0163477
-0.92172825 -0.38792852 -0.01718381
-0.9059276 -0.42352295 -0.01731349
-0.82657558 -0.56290966 -0.01755678
-0.80298102 -0.59608668 -0.01754283
-0.73866439 -0.67413741 -0.0174922
-0.87850785 -0.47530141 -0.05206062
-0.85854918 -0.51045513 -0.05227817
-0.83701938 -0.54503238 -0.05241476
-0.77701151 -0.62762648 -0.05241437
-0.72351474 -0.68863189 -0.05206086
-0.6953721 -0.71705556 -0.05175732
-0.64570147 -0.76308352 -0.03382164
-0.93134689 -0.35832396 -0.06755399
-0.9004581 -0.42993194 -0.06875417
-0.81210619 -0.5772565 -0.08762269
-0.76184011 -0.64215815 -0.08744328
-0.67076874 -0.73635542 -0.09152849
-0.62859011 -0.77503383 -0.06755418
-0.93594795 -0.33784977 -0.10109496
-0.90663797 -0.4096072 -0.10305064
-0.87064952 -0.48112065 -0.10441852
-0.83726066 -0.53198957 -0.12862377
-0.79696912 -0.59173 -0.12295871
-0.7266196 -0.6793611 -0.1044198
-0.61054051 -0.78573585 -0.10109753
-0.93907118 -0.31695914 -0.1343006
-0.91133535 -0.38865995 -0.13709968
-0.87691438 -0.4605096 -0.13914165
-0.78041631 -0.60526055 -0.15822494
-0.73664129 -0.66198146 -0.1398458
-0.68043298 -0.71993262 -0.13822351
-0.62160003 -0.77171636 -0.13578534
-0.94073236 -0.29576001 -0.16701923
-0.91454345 -0.36720335 -0.17073548
-0.88170773 -0.43917739 -0.17354766
-0.84224963 -0.5102008 -0.17530383
-0.80838823 -0.56177902 -0.17582029
-0.74550146 -0.64336395 -0.17530273
-0.69014758 -0.70283836 -0.17354739
-0.63184428 -0.75630713 -0.1707364
-0.57198429 -0.80329663 -0.16701886
-0.92942446 -0.30966628 -0.20157376
-0.90148032 -0.38127807 -0.20578128
-0.86689472 -0.45308307 -0.20885012
-0.82579011 -0.52357841 -0.21061641
-0.7786783 -0.59124947 -0.21097419
-0.72443503 -0.65322024 -0.22148573
-0.67031169 -0.71276748 -0.20746806
-0.61160076 -0.76470751 -0.20380858
-0.55170417 -0.8101325 -0.1991125
-0.93982989 -0.25285926 -0.23045726
-0.91657114 -0.32323691 -0.23617259
-0.886868 -0.39483812 -0.24074699
-0.85057503 -0.4662866 -0.24394926
-0.82095766 -0.50761032 -0.26225474
-0.78675413 -0.55882859 -0.26296559
-0.76221937 -0.59191322 -0.26283279
-0.73645353 -0.62391853 -0.26225784
-0.67829818 -0.69389498 -0.24253672
-0.62029648 -0.74744248 -0.23862018
-0.56080228 -0.79457599 -0.2334429
-0.9358595 -0.22099186 -0.27564111
-0.91548496 -0.30095482 -0.26770517
-0.88728976 -0.37207189 -0.27324334
-0.86223584 -0.41399387 -0.29249564
-0.84364367 -0.44948781 -0.29432771
-0.80177909 -0.51923239 -0.2965835
-0.68517649 -0.67383379 -0.27728516
-0.62804765 -0.72888726 -0.27324384
-0.56912273 -0.77767968 -0.26770547
-0.51400524 -0.81196105 -0.27785799
-0.91308933 -0.27862304 -0.29829368
-0.88634151 -0.34907645 -0.30482325
-0.82462049 -0.46113029 -0.32826546
-0.78137809 -0.52991849 -0.33021683
-0.75009727 -0.5701738 -0.33586356
-0.71993512 -0.61116433 -0.3295083
-0.69337922 -0.64176589 -0.32826847
-0.66594881 -0.6710431 -0.32650343
-0.63778895 -0.69890743 -0.32424724
-0.60907471 -0.72527379 -0.32152605
-0.57660872 -0.75949514 -0.30174121
-0.91675973 -0.22029574 -0.33386099
-0.89754832 -0.29096743 -0.33180147
-0.86586064 -0.35909903 -0.34905294
-0.84302264 -0.40220898 -0.35765648
-0.80435699 -0.47194901 -0.36147788
-0.5572021 -0.75411183 -0.34812135
-0.51400203 -0.78708804 -0.34197873
-0.45616022 -0.82576513 -0.33260581
-0.89112043 -0.25745335 -0.37453619
-0.87181586 -0.30860695 -0.38084236
-0.82302046 -0.41311461 -0.39031354
-0.78297985 -0.48191458 -0.39380917
-0.74941605 -0.5318808 -0.39480585
-0.72540855 -0.56430703 -0.39462632
-0.70028311 -0.59573847 -0.39380729
-0.67416936 -0.62603813 -0.39236549
-0.64722151 -0.65507954 -0.3903155
-0.61958778 -0.68276763 -0.38768756
-0.59142965 -0.7090193 -0.3845194
-0.56290901 -0.73378003 -0.38084444
-0.91625983 -0.12144548 -0.38208205
-0.90828425 -0.17948996 -0.37827778
-0.85299045 -0.31980973 -0.41287369
-0.83744812 -0.35432285 -0.41651133
-0.80190372 -0.42327595 -0.4220795
-0.76062846 -0.49100059 -0.42513418
-0.50832623 -0.76874769 -0.38852966
-0.45137706 -0.80836535 -0.37827924
-0.39896646 -0.83375031 -0.38245139
-0.89743102 -0.14876752 -0.41596648
-0.87880301 -0.21317506 -0.42761943
-0.86128598 -0.26261416 -0.43534809
-0.81671733 -0.36462995 -0.44761118
-0.7798081 -0.43266997 -0.45282498
-0.72623205 -0.51521653 -0.45553243
-0.70264989 -0.54709738 -0.45533982
-0.6780163 -0.5780524 -0.45443445
-0.65246677 -0.60793853 -0.45282719
-0.62613308 -0.63664424 -0.45054215
-0.59916216 -0.66406685 -0.4476136
-0.55821544 -0.70257211 -0.44210911
-0.50231248 -0.748932 -0.43290427
-0.44643286 -0.78944254 -0.42195702
-0.83496296 -0.29039124 -0.46813649
-0.78419793 -0.3786464 -0.49228585
-0.7568723 -0.44128236 -0.48245099
-0.7358411 -0.47419766 -0.48376185
-0.37037855 -0.82203609 -0.43308729
-0.88028914 -0.10800304 -0.46252039
-0.86329114 -0.16964488 -0.47591925
-0.84733766 -0.21713571 -0.48492765
-0.80651045 -0.31611389 -0.4999257
-0.69974935 -0.48431456 -0.52581847
-0.67762649 -0.52818978 -0.51203883
-0.65351957 -0.5586108 -0.51108456
-0.62855536 -0.58804494 -0.50936908
-0.60286921 -0.61637223 -0.50691515
-0.56360471 -0.65654016 -0.5019666
-0.50962549 -0.70550853 -0.49311563
-0.45519158 -0.74897289 -0.48209509
-0.40126055 -0.78689378 -0.46937466
-0.81543666 -0.25721043 -0.51916212
-0.7746886 -0.3255392 -0.54272991
-0.73830783 -0.39232847 -0.5492481
-0.71975672 -0.43912703 -0.53801411
-0.33449513 -0.80359 -0.49284056
-0.31275082 -0.83191997 -0.4585973
0.2857129 -0.87935019 0.3815411
0.25734267 -0.90740055 0.3330366
0.23428136 -0.92675364 0.29412287
0.12684119 -0.98540294 0.11498565
0.06653157 -0.99782622 0.0163496
-0.10452845 -0.96084523 -0.25719789
-0.15052924 -0.92222911 -0.35698342
-0.2287951 -0.86447453 -0.44809011
0.32515207 -0.88536859 0.33303604
0.29666498 -0.91305089 0.2808885
0.36560997 -0.88793051 0.28013542
0.22867548 -0.94774437 0.22385548
0.2733596 -0.93184918 0.23923667
0.33693665 -0.91475374 0.22433358
0.40647036 -0.88636273 0.22307181
0.19306001 -0.9678753 0.16314897
0.26786771 -0.94973344 0.1641196
0.31332764 -0.93260837 0.18000898
0.37749931 -0.91178763 0.1637551
0.42261726 -0.89437062 0.14773078
0.46689749 -0.87498057 0.13076845
0.16474155 -0.97969538 0.1157375
0.24092442 -0.96367955 0.11674611
0.29742545 -0.94773346 0.11705504
0.33477661 -0.93519819 0.11699136
0.22205044 -0.97159725 0.08399266
0.35472378 -0.93136632 0.08423898
0.3914459 -0.91655773 0.08399036
0.42730659 -0.90042937 0.08361197
0.16375262 -0.98540068 0.05033795
0.2025542 -0.97815198 0.05061143
0.28002235 -0.95884073 0.05093705
0.31831589 -0.9468171 0.05097635
0.44672313 -0.89345825 0.05033893
0.10477368 -0.99454063 0.01650927
0.14348878 -0.98969907 0.01664571
0.2607013 -0.96547383 0.01692011
0.35658023 -0.93432075 0.01692179
0.39388755 -0.91921377 0.01685609
0.46564555 -0.88502413 0.01664386
0.49981454 -0.86618376 0.01650706
0.53268111 -0.84636563 0.01634678
0.201343 -0.97956485 -0.01749511
0.24072358 -0.97064042 -0.01754159
0.29925096 -0.95422578 -0.0175428
0.41288424 -0.91083091 -0.01749345
0.07384532 -0.99688184 -0.0338246
0.14109115 -0.98883998 -0.05175744
0.18056884 -0.98238605 -0.05206161
0.3183088 -0.94675225 -0.05245922
0.35680079 -0.93292826 -0.05241328
0.43135077 -0.90090156 -0.05206335
0.46708152 -0.88291883 -0.05176066
0.50158685 -0.86380053 -0.05138255
0.55823827 -0.8292197 -0.03348078
0.05299123 -0.99649149 -0.06755095
0.11991606 -0.98924226 -0.08610067
