-0.34328565 -0.92971808 -0.13333911
-0.3262099 -0.93987572 -0.10109711
-0.30830032 -0.9488526 -0.06804204
-0.28960037 -0.95653296 -0.03429675
-0.27016726 -0.96281344 -7.1E-07
-0.25007123 -0.96760577 0.03469236
-0.22939476 -0.97084063 0.06961742
-0.2082312 -0.9724701 0.10460177
-0.18668258 -0.9724701 0.13946928
-0.16485721 -0.97084016 0.17404459
-0.14286704 -0.96760499 0.20815772
-0.12082479 -0.9628123 0.24164796
-0.09884115 -0.95653158 0.27436769
-0.07702222 -0.94885099 0.30618533
-0.05546717 -0.93987393 0.33698738
-0.03426641 -0.92971581 0.36667994
-0.01350029 -0.91850054 0.39518917
0.01638759 -0.90028125 0.43535343
-0.34685609 -0.91430229 -0.20989554
-0.32316303 -0.93186378 -0.16491045
-0.30625233 -0.94255131 -0.1334416
-0.28853419 -0.95211732 -0.1010971
-0.27004886 -0.9604432 -0.06798766
-0.25084955 -0.96742028 -0.03424111
-0.23100212 -0.97295326 -6.5E-07
-0.21058454 -0.976964 0.03457759
-0.18968536 -0.9793942 0.06932787
-0.16840221 -0.98020828 0.1040786
-0.14683932 -0.97939402 0.13865642
-0.12510505 -0.97696346 0.17289059
-0.10330931 -0.97295243 0.20661709
-0.0815607 -0.96741933 0.23968256
-0.05996399 -0.96044201 0.27194744
-0.0386178 -0.95211589 0.30328876
-0.01761268 -0.94254953 0.33360171
0.01279903 -0.92641926 0.37671539
0.05184961 -0.90137488 0.43026927
-0.3265698 -0.91455984 -0.2392382
-0.30304903 -0.93269491 -0.19555454
-0.28628862 -0.94384503 -0.16491038
-0.26874837 -0.95393658 -0.133339
-0.25046554 -0.96284908 -0.10093874
-0.2314897 -0.97047013 -0.06782532
-0.21188264 -0.97669894 -0.03413061
-0.19171789 -0.98145008 -5.8E-07
-0.17107953 -0.98465627 0.03440752
-0.15006052 -0.98627108 0.0689285
-0.12876093 -0.98627096 0.10339303
-0.10728538 -0.98465592 0.13763183
-0.08574057 -0.98144954 0.17147975
-0.06423265 -0.97669828 0.20477967
-0.04286467 -0.97046924 0.23738603
-0.0217343 -0.96284801 0.2691679
-0.00093185 -0.95393527 0.30001095
0.01946134 -0.94384354 0.32981911
0.03937396 -0.9326933 0.35851511
0.06792641 -0.91455704 0.39909142
0.10421288 -0.88746786 0.44923124
-0.3210704 -0.90021396 -0.2946232
-0.2909649 -0.92647946 -0.23933792
-0.25679573 -0.9435643 -0.20989583
-0.23949696 -0.95431525 -0.17957948
-0.23094828 -0.96382838 -0.13303289
-0.21218573 -0.97203493 -0.10062434
-0.19281045 -0.9789077 -0.06755737
-0.17289168 -0.98435503 -0.03396692
-0.15250906 -0.98830211 -5.2E-07
-0.13175118 -0.99069327 0.03418459
-0.11071374 -0.99149406 0.06842497
-0.08949741 -0.99069303 0.10255481
-0.06820551 -0.98830169 0.13640986
-0.04694139 -0.98435444 0.16983145
-0.02580608 -0.97890699 0.20267004
-0.00489592 -0.97203422 0.23478839
0.01569938 -0.96382743 0.26606423
0.05350779 -0.95431471 0.29452595
0.0728914 -0.94356281 0.32355866
0.0839403 -0.92647791 0.36728776
0.12757353 -0.90602481 0.40388536
0.13693918 -0.88616985 0.44295397
-0.28645101 -0.91178858 -0.29473168
-0.25366867 -0.92979372 -0.26724771
-0.20225334 -0.96300679 -0.17896919
-0.19302891 -0.9722017 -0.13252732
-0.17387694 -0.97966075 -0.10015819
-0.15419696 -0.98575306 -0.0671875
-0.13406441 -0.99039763 -0.03375224
-0.11356342 -0.99353063 -4.1E-07
-0.09278546 -0.99510854 0.03391198
-0.07182713 -0.99510849 0.06782436
-0.05078815 -0.99353045 0.10157543
-0.02976888 -0.99039739 0.13500698
-0.00886799 -0.9857527 0.16796739
0.01181979 -0.97966027 0.20031522
0.03220567 -0.97220117 0.23192179
0.05220849 -0.96347129 0.2626735
0.12557529 -0.92979264 0.34641299
0.14303809 -0.91700834 0.37270638
0.16858001 -0.88396752 0.43638167
-0.26480818 -0.9002465 -0.34594762
-0.24990121 -0.91380215 -0.32058141
-0.21796058 -0.93898898 -0.26659352
-0.2009546 -0.95039165 -0.23803963
-0.16502151 -0.97023529 -0.17810723
-0.14618297 -0.97845376 -0.1468977
-0.13571729 -0.98573387 -0.09954658
-0.1158288 -0.99102575 -0.06672075
-0.09557991 -0.99485826 -0.03348951
-0.07505778 -0.99717915 -2.6E-07
-0.05435501 -0.99795651 0.03359329
-0.03356756 -0.99717909 0.06713451
-0.0127926 -0.99485809 0.10046751
0.00787377 -0.99102557 0.13344072
0.02833873 -0.98573363 0.16591027
0.06600828 -0.97845417 0.19644487
0.08549973 -0.97023517 0.22725342
0.10452861 -0.96084511 0.25719813
0.12303586 -0.95039177 0.28619489
0.14096852 -0.93898946 0.31417465
0.19098926 -0.90024537 0.39157137
0.19909766 -0.88094413 0.42957395
-0.27577966 -0.87718678 -0.3933382
-0.21539244 -0.92250049 -0.32072109
-0.16470389 -0.95743322 -0.23767243
-0.10876985 -0.98339593 -0.14636588
-0.09787734 -0.99028236 -0.09879764
-0.07787554 -0.99476516 -0.0661633
-0.05760518 -0.99778789 -0.03318224
-0.03715476 -0.9993096 -1.5E-07
-0.01661649 -0.9993096 0.03323256
0.00391581 -0.99778783 0.06636406
0.02434883 -0.99476516 0.0992446
0.06252076 -0.98957622 0.13099328
0.08226377 -0.98339635 0.16274473
0.19052491 -0.92250013 0.33609048
0.20644939 -0.90938115 0.36146545
0.22847144 -0.87718517 0.42257884
-0.27004519 -0.85809487 -0.43695295
-0.23627052 -0.88159359 -0.40890214
-0.22169752 -0.89571071 -0.38573906
-0.20644447 -0.90938264 -0.36146426
-0.17394924 -0.93495685 -0.3096303
-0.15673323 -0.94663924 -0.28212172
-0.1205222 -0.96722919 -0.22415569
-0.10162088 -0.97591698 -0.19383515
-0.06252188 -0.98957592 -0.13099372
-0.06051646 -0.99335253 -0.09792092
-0.04049364 -0.99702913 -0.06552225
-0.02029203 -0.99925482 -0.03283428
-2E-08 -0.99999994 -6E-08
0.02029198 -0.99925482 0.03283417
0.04049359 -0.99702913 0.06552213
0.06051641 -0.99335259 0.09792081
0.12791912 -0.97591686 0.17758323
0.14658234 -0.96723008 0.20804593
0.16470528 -0.95743376 0.23766938
0.18223797 -0.9466399 0.26635715
0.19914275 -0.93495649 0.2940613
0.24335408 -0.88654059 0.3937698
0.30464706 -0.85687095 0.41614646
0.34712192 -0.85495937 0.38573718
0.3307521 -0.84395212 0.42257985
0.49141353 -0.84926653 0.19383503
0.50111836 -0.83519286 0.22725298
0.44993174 -0.86866552 0.20805147
0.55327809 -0.83041561 0.06552242
0.56500846 -0.8190946 0.09924479
0.53491759 -0.83921063 0.09792117
0.57093036 -0.82034165 0.03283437
0.58331645 -0.80952936 0.06636415
0.58778548 -0.80901676 6E-08
0.60082239 -0.79869151 0.03323257
0.60376465 -0.79648614 -0.03283425
0.61743879 -0.78661901 -2.3E-07
0.6188004 -0.78281081 -0.06552229
0.6330896 -0.77336693 -0.0331824
0.63283879 -0.76806682 -0.09792104
0.64771253 -0.75900638 -0.06616354
0.65584481 -0.72979945 -0.19383802
0.69338703 -0.70566016 -0.14689578
0.66602629 -0.73164761 -0.14636269
0.66602963 -0.71166211 -0.22415446
0.70379519 -0.68793869 -0.17811032
0.67515367 -0.69292402 -0.25360969
0.71306068 -0.66960067 -0.2085183
0.68322438 -0.67371804 -0.28212118
0.7212038 -0.65076196 -0.23804189
0.69028503 -0.65414703 -0.30963179
0.72825968 -0.63154203 -0.2665928
0.70154494 -0.61435485 -0.36146295
0.73929822 -0.59238625 -0.32058406
0.71649194 -0.61970806 -0.3207247
0.70585197 -0.59432453 -0.38573757
0.74339366 -0.57265764 -0.34594208
0.7093395 -0.57434356 -0.40889966
0.74661356 -0.55295038 -0.37020308
0.7490344 -0.53334749 -0.39333698
0.35672459 -0.82972682 0.42957786
0.3831895 -0.81423634 0.43638501
0.36749679 -0.85705465 0.36146381
0.4017736 -0.82496166 0.39784333
0.38808176 -0.85831183 0.33608991
0.42327833 -0.82595474 0.37270442
0.43210581 -0.79877907 0.41894013
0.43732381 -0.77923548 0.4492307
0.40882161 -0.85864264 0.3096309
0.44491911 -0.82603383 0.34641114
0.42961809 -0.85797393 0.28212216
0.46660599 -0.82511926 0.31898841
0.47666141 -0.79887712 0.36728302
0.48260841 -0.77981937 0.39909092
0.48786214 -0.75970829 0.43026802
0.49240923 -0.73863125 0.46070263
0.45037895 -0.85623342 0.25360838
0.48824531 -0.8231315 0.29047981
0.52003294 -0.71618545 0.46577311
0.50971878 -0.82000828 0.2609435
0.5097667 -0.79628378 0.32568401
0.51636511 -0.77771074 0.35851508
0.53417593 -0.75701463 0.37671718
0.53944916 -0.73638517 0.40872568
0.54753953 -0.69231695 0.47032797
0.5319314 -0.79322177 0.29639211
0.53902918 -0.77502698 0.32981905
0.55542636 -0.71365684 0.42684361
0.51147103 -0.84393859 0.16274616
0.53622091 -0.82058793 0.19774319
0.54538786 -0.80545902 0.23192184
0.5538196 -0.78898263 0.26606429
0.56145996 -0.77120435 0.30001083
0.56826264 -0.75218856 0.33360144
0.57419223 -0.73201722 0.36667955
0.57922578 -0.71078831 0.39909574
0.58335227 -0.68861324 0.43071082
0.58657354 -0.66561425 0.46139905
0.60163617 -0.64044255 0.47769928
0.53107548 -0.8373341 0.13099401
0.55647117 -0.81413364 0.16591042
0.56626523 -0.79951072 0.20031524
0.57530588 -0.78351611 0.23478843
0.58352882 -0.76618725 0.26916778
0.59087956 -0.74758112 0.30328849
0.59731519 -0.72777343 0.33698708
0.60280567 -0.70685744 0.37010533
0.60733396 -0.68494105 0.40249377
0.61089689 -0.6621449 0.43401521
0.6151787 -0.6144377 0.49398518
0.57613879 -0.80638558 0.13344079
0.58658361 -0.79227936 0.16796736
0.59626287 -0.77678537 0.20267002
0.60510379 -0.75993252 0.23738587
0.61304343 -0.74176985 0.27194712
0.62003064 -0.72236603 0.30618498
0.62602741 -0.70180821 0.33993372
0.63100964 -0.68019998 0.37303451
0.63496822 -0.65765899 0.40533933
0.63790834 -0.63431364 0.43671405
0.63984907 -0.61029977 0.46704108
0.64082223 -0.5857572 0.49622124
0.59511161 -0.79733837 0.1004675
0.60622352 -0.78375137 0.13500686
0.61656427 -0.76876903 0.16983134
0.62605268 -0.75241166 0.20477936
0.63461727 -0.73472005 0.23968214
0.64219767 -0.71575463 0.27436727
0.64874744 -0.69559598 0.30866313
0.65423453 -0.67434216 0.34240288
0.65864277 -0.65210658 0.37542853
0.66197169 -0.62901515 0.40759468
0.66423577 -0.60520285 0.43877146
0.66546381 -0.58081019 0.46884701
0.6656974 -0.55597943 0.49772879
0.61328369 -0.78700459 0.06713443
0.62507063 -0.77393109 0.10157529
0.63608789 -0.75946343 0.13640969
0.64624625 -0.7436133 0.17147942
0.65546501 -0.72641259 0.20661661
0.66367501 -0.70791394 0.24164745
0.6708203 -0.68818986 0.27639619
0.67686039 -0.66733199 0.31068957
0.68177104 -0.64544851 0.34436098
0.68554461 -0.62266165 0.37725464
0.68819016 -0.59910434 0.40922889
0.68973243 -0.57491636 0.44015926
0.69021052 -0.55024117 0.4699406
0.68967563 -0.52522153 0.49848765
0.63055837 -0.77541441 0.03359311
0.64301944 -0.76284075 0.06782412
0.65471941 -0.74888247 0.10255451
0.6655615 -0.73354328 0.13763143
0.67545611 -0.71684593 0.17289001
0.68432498 -0.69883478 0.20815709
0.69210255 -0.67957407 0.24325491
0.69873929 -0.65914822 0.27800566
0.70420164 -0.63765895 0.31223574
0.70847422 -0.61522377 0.34578022
0.71155941 -0.59197223 0.37848681
0.71347642 -0.56804234 0.41021878
0.71426046 -0.54357713 0.44085801
0.71396089 -0.5187211 0.47030663
0.71263856 -0.49361584 0.49848741
0.64685106 -0.7626164 -5E-07
0.65997559 -0.7505213 0.03391168
0.67235512 -0.73705947 0.06842461
0.68388528 -0.72222638 0.10339253
0.6944685 -0.70603681 0.13865578
0.70401734 -0.68852621 0.17404391
0.71245676 -0.66975045 0.20937935
0.71972704 -0.64978576 0.24448179
0.72578567 -0.62872714 0.2791726
0.73060817 -0.60668588 0.31327942
0.7341888 -0.58378708 0.34664023
0.73654044 -0.56016588 0.3791073
0.73769325 -0.53596383 0.41055018
0.73769301 -0.51132518 0.44085786
0.73659891 -0.48639312 0.4699401
0.73448133 -0.46130657 0.49772808
0.66209006 -0.74867553 -0.03348983
0.67585862 -0.7370314 -7.7E-07
0.68890464 -0.72404546 0.03418414
0.70111758 -0.70970625 0.06892791
0.71239251 -0.69402075 0.1040779
0.72263294 -0.67701554 0.13946848
0.73175478 -0.65873832 0.17492455
0.73968834 -0.63925695 0.21026558
0.74638104 -0.61865848 0.24530998
0.75179881 -0.59704751 0.27987978
0.75592726 -0.57454354 0.31380507
0.75877136 -0.55127758 0.34692815
0.7603547 -0.52738839 0.37910706
0.76071846 -0.50301915 0.41021827
0.75991887 -0.47831339 0.44015864
0.75802469 -0.45341131 0.46884611
0.75511491 -0.42844719 0.49622011
0.65382493 -0.74815184 -0.11450282
0.67621946 -0.73367262 -0.06672111
0.6906029 -0.72244608 -0.03375266
0.70429289 -0.7099095 -1.03E-06
0.7171734 -0.69604486 0.03440688
0.72913259 -0.68085182 0.06932711
0.74006647 -0.66434944 0.10460091
0.74988163 -0.64657658 0.14005774
0.75849879 -0.62759262 0.17551908
0.76585531 -0.60747665 0.2108027
0.77190697 -0.58632565 0.24572717
0.77662969 -0.56425261 0.28011659
0.7800197 -0.54138327 0.31380486
0.78209299 -0.5178526 0.34663981
0.78288466 -0.49380147 0.37848613
0.78244627 -0.46937221 0.40922794
0.78084397 -0.44470569 0.43877035
0.77815557 -0.41993776 0.46703973
0.68919963 -0.71770072 -0.09954697
0.70416093 -0.70685434 -0.06718794
0.7184633 -0.69473505 -0.03396744
0.73198617 -0.68131948 -1.24E-06
0.7446124 -0.666601 0.03457681
0.75623077 -0.6505909 0.06961651
0.76673985 -0.63332033 0.10495395
0.77605093 -0.61484027 0.14041486
0.78409141 -0.59522134 0.17581858
0.79080695 -0.57455266 0.21098253
0.79616314 -0.55293983 0.24572694
0.80014652 -0.53050256 0.27987933
0.80276471 -0.50737095 0.31327876
0.80404502 -0.48368207 0.34577942
0.80403316 -0.4595764 0.37725344
0.80279124 -0.43519408 0.40759337
0.80039442 -0.41067132 0.43671253
0.79692847 -0.38613784 0.46454573
0.71650165 -0.69035745 -0.10015864
0.73137623 -0.67861962 -0.06755793
0.74550742 -0.66562283 -0.03413131
0.75877345 -0.65135467 -1.47E-06
0.77105725 -0.63582009 0.03469142
0.78225011 -0.61904269 0.06979182
0.79225487 -0.60106534 0.10513172
0.80098939 -0.58195037 0.14053437
0.80838895 -0.5617786 0.17581834
0.8144089 -0.54064822 0.21080229
0.8190257 -0.51867169 0.24530938
0.82223696 -0.49597332 0.27917176
0.82406181 -0.47268566 0.31223467
0.82453865 -0.44894603 0.34435967
0.82372379 -0.42489257 0.37542701
0.82168859 -0.40066105 0.40533754
0.81851643 -0.37638184 0.43401325
0.81202614 -0.34052005 0.47432038
0.7276122 -0.6730653 -0.1325278
0.74301207 -0.66167051 -0.1006249
0.75770903 -0.64905822 -0.067826
0.77157849 -0.63521177 -0.0342419
0.78449887 -0.6201303 -1.64E-06
0.79635501 -0.60383046 0.03474911
0.8070423 -0.5863477 0.06985046
0.81646985 -0.56773627 0.10513158
0.82456309 -0.54806882 0.14041451
0.83126718 -0.52743542 0.17551854
0.83654785 -0.50594109 0.21026479
0.84039277 -0.48370361 0.24448073
0.84281129 -0.46085006 0.27800441
0.84383345 -0.43751329 0.31068802
0.84350884 -0.41382882 0.34240112
0.84190309 -0.38993075 0.37303254
0.83909583 -0.36594903 0.40249157
0.83302265 -0.3304607 0.44406924
0.73749566 -0.65509367 -0.16417202
0.75336784 -0.64400232 -0.13303348
0.76858175 -0.63173842 -0.10093947
0.78301054 -0.6182816 -0.06798851
0.79652941 -0.60362619 -0.03429775
0.80901861 -0.58778304 -1.87E-06
0.82036704 -0.57078058 0.03474887
0.83047575 -0.55266547 0.06979142
0.83926153 -0.5335024 0.10495335
0.84665924 -0.51337332 0.14005692
0.85262424 -0.49237546 0.17492349
0.85713369 -0.47061947 0.20937802
0.86018676 -0.44822612 0.24325338
0.86180407 -0.42532322 0.27639437
0.86202687 -0.4020423 0.30866107
0.86091411 -0.37851501 0.33993143
0.85854018 -0.35486984 0.37010285
0.85499209 -0.33122963 0.39909321
0.84787613 -0.29640228 0.43996593
0.75469345 -0.63128048 -0.17957705
0.77813452 -0.61378115 -0.13333975
0.79307187 -0.60067987 -0.10109791
0.80714381 -0.5864206 -0.068043
0.82022703 -0.57100904 -0.03429788
0.83220541 -0.55446756 -2E-06
0.84297329 -0.53683567 0.03469091
0.85243934 -0.5181706 0.0696158
0.86052924 -0.49854621 0.1046
0.8671881 -0.47805196 0.13946734
0.87238252 -0.45679089 0.17404252
0.87610114 -0.43487707 0.2081555
0.87835461 -0.41243243 0.24164559
0.87917471 -0.38958371 0.27436519
0.87861258 -0.36645904 0.30618268
0.87673581 -0.34318471 0.33698457
0.87362653 -0.31988248 0.36667705
0.86937714 -0.29666677 0.39518607
0.86128724 -0.26261556 0.43534479
0.76236826 -0.61241418 -0.20989898
0.78639352 -0.5953064 -0.16491102
0.80178368 -0.58252567 -0.13344231
0.81635684 -0.56863058 -0.10109799
0.82998765 -0.55362254 -0.06798873
0.84255624 -0.53751874 -0.03424235
0.85395175 -0.5203523 -2.08E-06
0.8640756 -0.50217313 0.03457598
0.87284523 -0.48304766 0.0693261
0.88019645 -0.46305758 0.10407664
0.88608539 -0.44229817 0.13865428
0.89049011 -0.42087638 0.17288828
0.89341092 -0.39890778 0.20661464
0.89486927 -0.3765136 0.23967993
0.89490736 -0.35381767 0.2719447
0.89358509 -0.33094311 0.30328584
0.8909781 -0.30800977 0.3335987
0.88717407 -0.28513128 0.3627978
0.8822704 -0.26241341 0.39081725
0.87328428 -0.22922298 0.43026519
0.75174761 -0.60311061 -0.26724291
0.78556246 -0.58228236 -0.21013901
0.80918294 -0.56393909 -0.16491109
0.82420093 -0.55037558 -0.1333399
0.83832711 -0.53574151 -0.1009398
0.85143906 -0.52004921 -0.06782655
0.86342198 -0.50332636 -0.03413203
0.87417197 -0.48561653 -2.18E-06
0.88359892 -0.46697882 0.03440575
0.89163005 -0.44748738 0.06892655
0.89821202 -0.42723006 0.10339092
0.90331233 -0.40630633 0.13762955
0.90692073 -0.38482499 0.1714773
0.90904838 -0.36290133 0.20477705
0.90972739 -0.34065413 0.23738326
0.90900892 -0.3182027 0.26916498
0.90696084 -0.2956641 0.30000791
0.90366501 -0.27315032 0.32981595
0.89677143 -0.24001251 0.37217522
0.88390964 -0.19635585 0.42477474
0.76768494 -0.56927246 -0.29473355
0.78494918 -0.55908215 -0.26753122
0.79920506 -0.55727917 -0.22519146
0.81802875 -0.53580326 -0.20989947
0.83360016 -0.52267385 -0.17957693
0.84528941 -0.51748216 -0.13303384
0.85889238 -0.50217366 -0.10062548
0.87141603 -0.48587021 -0.0675587
0.88275218 -0.46860948 -0.03396843
0.89280474 -0.45044398 -2.22E-06
0.90149343 -0.43144074 0.0341827
0.90875614 -0.41168022 0.06842291
0.9145506 -0.39125457 0.10255258
0.91885602 -0.37026566 0.13640746
0.921673 -0.34882233 0.16982888
0.9230234 -0.3270379 0.2026673
0.92294866 -0.30502719 0.2347855
0.92150795 -0.2829037 0.26606119
0.92414349 -0.24400713 0.29452392
0.91990703 -0.22225299 0.3235561
0.91458702 -0.20071599 0.35149121
0.90828413 -0.17949101 0.37827748
0.89678562 -0.17419198 0.40673441
0.88511509 -0.14359945 0.44295365
0.80589831 -0.52857745 -0.26724371
0.85093319 -0.49895898 -0.16417247
0.86760533 -0.4751471 -0.1477319
0.87798291 -0.4680962 -0.1001595
0.88985854 -0.45126185 -0.067189
0.90049732 -0.43354976 -0.03375394
0.90981221 -0.41502011 -2.29E-06
0.91773355 -0.39574647 0.0339099
0.92421007 -0.37581372 0.06782209
0.9292109 -0.35531667 0.10157298
0.9327265 -0.33435783 0.13500433
0.93476796 -0.31304449 0.16796458
0.93536657 -0.29148638 0.20031221
0.93457228 -0.26979315 0.23191862
0.93738788 -0.23137124 0.26093984
0.90126765 -0.13261317 0.41278735
0.77435702 -0.53003627 -0.34594738
0.79185504 -0.52004766 -0.32058305
0.82568109 -0.4974508 -0.26659441
0.84178048 -0.48480073 -0.2380414
0.85717857 -0.47123775 -0.20851937
0.883187 -0.45011273 -0.13183035
0.89797819 -0.42513856 -0.11498587
0.90672964 -0.41640079 -0.06672239
0.91663176 -0.39832702 -0.03349135
0.92518103 -0.37952641 -2.3E-06
0.93231773 -0.3600769 0.03359105
0.93800223 -0.34006652 0.06713209
0.94221467 -0.31959096 0.10046491
0.944956 -0.29875162 0.13343795
0.94624722 -0.27765286 0.16590732
0.94612795 -0.25639972 0.19773988
0.94917035 -0.21850194 0.22725102
0.94189745 -0.17667241 0.28619194
0.93659562 -0.15608887 0.31417185
0.93031144 -0.13583508 0.34108329
0.92314702 -0.11597144 0.36688903
0.9152053 -0.09654659 0.39156726
0.90658689 -0.07761195 0.415106
0.89738858 -0.05919975 0.43751016
0.8107903 -0.48991749 -0.32072285
0.87459481 -0.4382956 -0.2080494
0.88862491 -0.42322862 -0.17758423
0.91156965 -0.39909837 -0.09879927
0.92201406 -0.38146064 -0.06616511
0.93115282 -0.36311626 -0.03318424
0.93891954 -0.34413683 -2.32E-06
0.94526625 -0.32460362 0.03323021
0.9501639 -0.30460584 0.06636153
0.95360339 -0.28423867 0.09924189
0.95559543 -0.26360101 0.131727
0.96068686 -0.225647 0.16274369
0.95955628 -0.20492256 0.19383317
0.9535014 -0.16374715 0.25360587
0.78336388 -0.48763669 -0.38573799
0.80107754 -0.47735864 -0.36146381
0.83544397 -0.45435184 -0.30963081
0.85187507 -0.4415884 -0.28212121
0.86765009 -0.42797258 -0.25360733
0.90984505 -0.38212186 -0.16274583
0.92182553 -0.36524907 -0.13099562
0.92603523 -0.36451361 -0.09792048
0.93571937 -0.34660673 -0.06552193
0.94407868 -0.32808143 -0.03283411
0.95105785 -0.30901265 -6E-08
0.95661974 -0.28948343 0.03283397
0.96074557 -0.26958263 0.0655217
0.96343631 -0.24940354 0.09792013
0.96870828 -0.22095667 0.11450434
0.96518725 -0.1594775 0.20804809
0.95662397 -0.11920493 0.26635417
0.95073724 -0.09951586 0.29405579
0.94391006 -0.08021134 0.32072249
0.93624902 -0.0613467 0.34630463
0.92784733 -0.04295968 0.37080464
0.90907407 -0.0249504 0.41614583
0.29247901 0.87176037 0.39333922
0.37558717 0.88777322 0.26659372
0.41648093 0.88507819 0.20852005
0.43678412 0.88193387 0.17810921
0.45685604 0.87751013 0.14689711
0.50288761 0.8586868 0.09879772
0.52170503 0.85055643 0.06616329
0.53988129 0.8410868 0.03318214
0.55732101 0.83029699 -5E-08
0.57393742 0.81822455 -0.03323285
0.58965451 0.80492449 -0.06636443
0.60440892 0.79046834 -0.09924505
0.61815125 0.77494258 -0.13173036
0.61651683 0.77009839 -0.16487862
0.62852532 0.75278521 -0.19644524
0.63946831 0.73467475 -0.22725295
0.64934015 0.71589577 -0.25719833
0.67867941 0.63642889 -0.36689237
0.68367052 0.6160475 -0.3915697
0.68782741 0.59566247 -0.41510969
0.2789979 0.88619936 0.37019855
0.26480773 0.90024704 0.34594673
0.30105942 0.89813429 0.3209064
0.24990232 0.91380167 0.32058191
0.32106948 0.90021467 0.294622
0.23428187 0.92675424 0.29412064
0.34129113 0.90132415 0.26724637
0.28916013 0.91929507 0.26753312
0.21795842 0.9389897 0.26659274
0.27335864 0.93184936 0.2392367
0.20095237 0.95039171 0.23804136
0.38205311 0.90028518 0.20935504
0.34685537 0.91430241 0.2098965
0.31103432 0.9270488 0.21013699
0.25679597 0.9435637 0.20989825
0.18329331 0.96084517 0.20851979
0.23949793 0.95431572 0.17957586
0.39513388 0.90383452 0.16417138
0.35949743 0.91850305 0.16466273
0.323163 0.93186384 0.16491005
0.28628862 0.94384503 0.16491002
0.21158771 0.96347207 0.16417123
0.18378954 0.97196996 0.14773095
0.41528016 0.89998829 0.13252717
0.37968096 0.91550249 0.13303262
0.3432858 0.92971802 0.13333866
0.30625233 0.94255131 0.13344114
0.26874837 0.95393658 0.13333862
0.23094836 0.96382838 0.13303252
0.15516551 0.97905296 0.13182892
0.1268397 0.98540294 0.11498715
0.46960089 0.87724888 0.09954651
0.43515933 0.8947652 0.10015794
0.39968452 0.91111314 0.10062399
0.36331621 0.92618179 0.10093831
0.32621005 0.93987578 0.10109659
0.28853419 0.95211738 0.10109657
0.25046557 0.96284908 0.10093827
0.21218583 0.97203487 0.10062391
0.17387702 0.97966069 0.10015784
0.48880216 0.86983955 0.0667206
0.45466241 0.88812608 0.0671872
0.4193998 0.9052844 0.06755696
0.38314825 0.92119342 0.06782484
0.34605959 0.93574589 0.06798709
0.30830055 0.94885254 0.06804144
0.27004898 0.96044332 0.06798708
0.23148979 0.97047019 0.06782482
0.1928106 0.97890759 0.06755692
0.15419711 0.98575312 0.06718715
0.11582887 0.99102575 0.06672054
0.07787556 0.99476522 0.06616323
0.50743705 0.86103779 0.03348929
0.47368056 0.88004971 0.03375186
0.43871683 0.89798325 0.03396643
0.40267247 0.91470772 0.03413007
0.36569378 0.93010527 0.03424049
0.32794407 0.94407433 0.0342961
0.28960049 0.95653296 0.0342961
0.25084955 0.9674204 0.03424049
0.21188265 0.97669905 0.03413007
0.17289175 0.98435503 0.03396644
0.13406445 0.99039763 0.03375188
0.09557994 0.99485821 0.0334893
0.05760517 0.99778777 0.03318215
0.52540469 0.85085249 -4E-08
0.49210846 0.87053394 -4E-08
0.45752743 0.88919556 -3E-08
0.42177939 0.90669858 -2E-08
0.38500351 0.9229151 -1E-08
0.34735808 0.93773258 -1E-08
0.30901727 0.95105636 -0
0.27016735 0.96281332 1E-08
0.23100209 0.9729532 1E-08
0.19171791 0.98145008 2E-08
0.15250914 0.98830205 3E-08
0.1135635 0.99353075 4E-08
0.07505783 0.99717915 4E-08
0.03715476 0.99930948 5E-08
0.54261094 0.83931208 -0.03359367
0.50984603 0.85959691 -0.03391248
0.47572693 0.87892848 -0.03418521
0.44036132 0.89716113 -0.03440819
0.4038797 0.9141584 -0.03457832
0.36643359 0.92979717 -0.03469314
0.3281925 0.94397146 -0.03475098
0.28934038 0.95659524 -0.03475096
0.25007129 0.96760571 -0.0346931
0.21058449 0.97696394 -0.03457825
0.17107952 0.98465621 -0.0344081
0.13175127 0.99069321 -0.03418509
0.09278551 0.99510843 -0.03391235
0.05435506 0.9979564 -0.03359351
0.01661648 0.99930954 -0.03323266
0.558972 0.8264643 -0.06713497
0.52680224 0.84727752 -0.06782493
0.49321786 0.86721045 -0.06842566
0.45831576 0.88611245 -0.06892922
0.42221659 0.90384001 -0.06932866
0.3850632 0.92026055 -0.06961825
0.34701884 0.93525761 -0.06979375
0.30826312 0.94873309 -0.06985254
0.2689884 0.96061134 -0.06979372
0.22939482 0.97084057 -0.06961817
0.18968533 0.97939426 -0.06932855
0.15006049 0.98627102 -0.06892908
0.11071379 0.99149412 -0.06842549
0.07182717 0.99510843 -0.06782471
0.03356759 0.99717909 -0.06713472
-0.00391582 0.99778783 -0.06636416
0.5744155 0.81237477 -0.10046802
0.54289621 0.83363414 -0.10157605
0.50991195 0.85409135 -0.10255554
0.47554803 0.8735925 -0.1033938
0.43991405 0.89198828 -0.1040794
0.40314335 0.90913904 -0.10460264
0.36539075 0.92491835 -0.10495589
0.32682994 0.93921727 -0.10513383
0.28764954 0.95194781 -0.10513381
0.24804851 0.96304524 -0.10495581
0.20823121 0.97247005 -0.10460253
0.16840215 0.98020828 -0.10407925
0.1287609 0.98627102 -0.10339361
0.08949745 0.99069303 -0.10255531
0.05078819 0.99353057 -0.10157578
0.01279263 0.99485803 -0.10046771
-0.02434884 0.99476516 -0.0992447
0.58888268 0.79712641 -0.13344128
0.55805999 0.81874418 -0.13500762
0.5257324 0.83964139 -0.13641067
0.49197325 0.85966253 -0.13763267
0.45688066 0.87865478 -0.13865726
0.42057696 0.89647263 -0.13947017
0.38320744 0.91298151 -0.14005966
0.34493804 0.92806292 -0.14041696
0.30595163 0.94161725 -0.14053665
0.26644397 0.95356739 -0.14041691
0.22661878 0.96386057 -0.14005956
0.18668254 0.97246993 -0.13947004
0.1468392 0.97939396 -0.13865705
0.10728532 0.98465592 -0.1376324
0.06820551 0.98830163 -0.13641036
0.02976891 0.99039727 -0.13500728
-0.00787374 0.99102551 -0.13344091
0.57223958 0.80270076 -0.16796803
0.54061586 0.82394874 -0.16983226
0.5075193 0.84440428 -0.17148054
0.47303599 0.86391294 -0.17289139
0.43727666 0.88232493 -0.17404549
0.40037587 0.89949983 -0.17492639
0.36249015 0.91531044 -0.17552114
0.32379499 0.92964721 -0.17582078
0.28448093 0.94242114 -0.17582074
0.24474902 0.95356715 -0.17552106
0.20480561 0.96304482 -0.17492625
0.16485716 0.97083998 -0.17404529
0.12510496 0.97696334 -0.17289115
0.08574052 0.98144948 -0.17148025
0.04694141 0.98435438 -0.1698319
0.00886803 0.98575258 -0.16796765
-0.04611736 0.98540187 -0.16488057
0.58539575 0.78561133 -0.20031582
0.55451322 0.80711812 -0.20267081
0.52212733 0.82791787 -0.2047804
0.48831204 0.84785634 -0.20661788
0.45316598 0.86678165 -0.20815858
0.41681218 0.88454908 -0.20938104
0.37939659 0.90102482 -0.21026753
0.34108564 0.91609043 -0.21080485
0.30206293 0.92964691 -0.21098487
0.26252469 0.94161677 -0.21080482
0.22267516 0.95194709 -0.21026745
0.18272117 0.96061051 -0.20938092
0.14286695 0.96760482 -0.20815842
0.10330919 0.97295237 -0.20661764
0.06423257 0.97669816 -0.20478015
0.02580606 0.97890687 -0.20267048
-0.01181977 0.97966003 -0.20031545
-0.04851466 0.97905266 -0.19774319
0.59750438 0.76759404 -0.23192239
0.5673905 0.78926682 -0.23478916
0.53575343 0.81031835 -0.23738678
0.50265515 0.83059603 -0.23968332
0.46818197 0.84994787 -0.24164882
0.43244487 0.86822671 -0.24325654
0.39557829 0.88529402 -0.24448362
0.35773841 0.90102452 -0.24531204
0.31910011 0.91530985 -0.24572943
0.27985311 0.92806214 -0.2457294
0.24019742 0.93921632 -0.24531201
0.20033821 0.94873202 -0.24448353
0.16048065 0.95659411 -0.2432564
0.12082473 0.96281219 -0.24164861
0.08156062 0.96741921 -0.23968305
0.04286461 0.97046912 -0.23738651
0.00489591 0.97203404 -0.23478881
-0.03220564 0.97220111 -0.23192199
-0.08550211 0.97023511 -0.22725256
0.60855615 0.74877357 -0.26267406
0.57922912 0.77052134 -0.26606497
0.54836905 0.79173207 -0.26916862
0.5160265 0.81225657 -0.2719481
0.48227581 0.8319447 -0.27436852
0.44721556 0.85064834 -0.27639765
0.4109681 0.86822647 -0.27800733
0.37367833 0.88454849 -0.27917448
0.33551124 0.899499 -0.27988192
0.29664817 0.91298044 -0.28011885
0.25728318 0.92491704 -0.27988181
0.21761777 0.93525618 -0.27917442
0.17785591 0.94396991 -0.27800721
0.13819902 0.95105481 -0.27639741
0.09884098 0.95653152 -0.27436826
0.05996381 0.96044195 -0.27194783
0.02173416 0.96284789 -0.26916826
-0.01569946 0.96382725 -0.26606455
-0.05220852 0.96347123 -0.26267365
-0.10452931 0.96084476 -0.25719896
0.6319716 0.71870703 -0.2904819
0.59002447 0.75101441 -0.29639262
0.55996013 0.77229375 -0.30001155
0.52840227 0.79297316 -0.30328929
0.49541348 0.81290555 -0.30618599
0.46108013 0.83194435 -0.30866441
0.42551234 0.84994727 -0.31069106
0.388843 0.86678076 -0.31223753
0.35122597 0.88232368 -0.31328136
0.31283325 0.89647108 -0.31380722
0.27385092 0.90913731 -0.31380722
0.23447497 0.92025876 -0.31328133
0.19490635 0.92979532 -0.31223741
0.1553458 0.93773073 -0.31069094
0.115989 0.94407248 -0.30866426
0.0770221 0.94885087 -0.3061859
0.03861767 0.95211571 -0.30328912
0.00093175 0.95393521 -0.30001128
-0.0358985 0.95439142 -0.29639232
-0.08882145 0.95291078 -0.29048148
0.64054036 0.69874913 -0.31898946
0.58510107 0.74195987 -0.32784626
0.53977334 0.77288699 -0.33360228
0.50757581 0.7929728 -0.33698803
0.47400922 0.81225592 -0.33993486
0.43917131 0.8305949 -0.34240425
0.40318283 0.84785491 -0.34436253
0.36618596 0.86391121 -0.34578207
0.32834181 0.87865281 -0.34664226
0.28982747 0.89198613 -0.34693038
0.25083163 0.90383774 -0.34664223
0.2115503 0.91415608 -0.34578204
0.17218159 0.92291278 -0.34436247
0.13292113 0.93010283 -0.3424041
0.09395732 0.93574375 -0.33993471
0.05546708 0.9398737 -0.33698785
0.01761259 0.94254935 -0.33360204
-0.01946141 0.94384348 -0.32981944
-0.07288978 0.94356221 -0.32356068
-0.14096873 0.93898898 -0.31417614
0.64811784 0.6784004 -0.34641242
0.59424829 0.7212798 -0.35629177
0.5501436 0.75214171 -0.36280155
0.5187571 0.77229291 -0.36668059
0.48598701 0.79173088 -0.37010637
0.45191923 0.81031686 -0.37303579
0.41666198 0.82791609 -0.37543002
0.3803454 0.84440213 -0.37725627
0.3431192 0.85966003 -0.37848869
0.30515021 0.87358987 -0.37910941
0.26661843 0.88610983 -0.37910938
0.22771317 0.89715832 -0.37848866
0.18862827 0.90669572 -0.37725621
0.14955732 0.9147048 -0.37542987
0.11068908 0.92119068 -0.37303558
0.07220311 0.92617929 -0.37010619
0.03426625 0.92971575 -0.36668035
-0.00297052 0.93186182 -0.36280128
-0.03937408 0.93269306 -0.35851532
-0.08393759 0.92647856 -0.36728677
-0.12557544 0.92979306 -0.34641179
0.64556646 0.65799606 -0.38802633
0.61977822 0.6790868 -0.3937093
0.59252071 0.69996411 -0.39908895
0.56380242 0.72050893 -0.40411362
0.53364754 0.74059993 -0.40872622
0.49701205 0.77051985 -0.39909667
0.46374431 0.78926492 -0.40249476
0.42925847 0.80711591 -0.40534052
0.39367235 0.82394618 -0.40759611
0.35712382 0.83963859 -0.40923053
0.31976852 0.85408849 -0.41022062
0.28177682 0.86720741 -0.41055226
0.24332982 0.87892526 -0.41022062
0.2046154 0.88919228 -0.40923047
0.16582339 0.89798003 -0.40759605
0.12714106 0.90528142 -0.40534052
0.08874886 0.9111101 -0.4024947
0.05081663 0.91549969 -0.39909658
0.00359217 0.91282904 -0.40872392
-0.03261102 0.91429985 -0.40411174
-0.0679268 0.91455692 -0.39909163
-0.14303851 0.91700912 -0.37270427
0.51172382 0.73816198 -0.43997049
0.47464752 0.76759177 -0.43071178
0.44096321 0.78560889 -0.43401623
0.40614748 0.8026979 -0.43671528
0.37032622 0.81874102 -0.43877295
0.33364344 0.83363086 -0.44016099
0.29625884 0.84727401 -0.44085994
0.25834441 0.85959333 -0.44085994
0.22008052 0.87053025 -0.44016099
0.18165158 0.88004607 -0.43877295
0.14324173 0.88812256 -0.43671528
0.1050306 0.89476174 -0.43401623
0.05687266 0.89436674 -0.4440743
0.01989648 0.89796942 -0.4399696
-0.11992407 0.90021282 -0.41893837
-0.14429851 0.90472275 -0.40081754
-0.19098783 0.90024537 -0.39157212
0.65597504 0.61604607 -0.43638387
0.63166803 0.63643295 -0.44295174
0.60595822 0.65671587 -0.44922963
0.57883829 0.67679238 -0.45516762
0.55031961 0.69656014 -0.46069753
0.48923683 0.73467678 -0.4703275
0.45177898 0.76354825 -0.46139985
0.42318568 0.77009368 -0.47770169
0.38270944 0.79712301 -0.46704218
0.34674808 0.81237131 -0.46884832
0.31002834 0.82646054 -0.46994209
0.27271202 0.8393082 -0.47030836
0.23497093 0.8508485 -0.46994203
0.1969827 0.8610338 -0.46884826
0.15892677 0.86983562 -0.46704218
0.12098019 0.87724495 -0.46454826
0.08331373 0.88327181 -0.46139979
-0.03578245 0.88699752 -0.46070042
-0.07046998 0.88777041 -0.45516685
-0.10421523 0.88746691 -0.44923264
-0.16858454 0.883964 -0.43638697
-0.19909877 0.88094211 -0.42957777
-0.22846918 0.87718594 -0.42257863
0.69120693 0.57536 -0.43751544
0.5287677 0.69292408 -0.49046409
0.46667328 0.72979605 -0.49992657
0.39991066 0.76383024 -0.50691593
0.35906777 0.79046428 -0.49622226
0.32306087 0.80492014 -0.49773005
0.28639907 0.81822014 -0.49848911
0.24924454 0.83029258 -0.49848911
0.21176705 0.84108233 -0.49773005
0.17413998 0.85055196 -0.49622226
0.12544455 0.85301042 -0.50691813
0.0882404 0.85951364 -0.50375718
0.05142756 0.86472118 -0.49992529
0.01513832 0.86866385 -0.49547708
-0.02048348 0.87139094 -0.49046132
-0.15426183 0.87146515 -0.4658373
0.67328322 0.57417852 -0.46608907
0.63235801 0.59993893 -0.49035615
0.60728329 0.61970788 -0.49742556
0.58083415 0.639337 -0.50413632
0.55300933 0.65872586 -0.510436
0.49337083 0.69633925 -0.52153671
0.42876831 0.73164248 -0.53026235
0.3705979 0.76806217 -0.5222429
0.33534235 0.78280598 -0.52417588
0.29938191 0.79648107 -0.52534598
0.26286882 0.80901164 -0.52573776
0.22596394 0.82033646 -0.52534598
0.18883345 0.83041042 -0.52417594
0.15164497 0.83920556 -0.52224308
-0.06019846 0.85797191 -0.5104354
-0.09409923 0.85863996 -0.50413924
-0.1270414 0.85830909 -0.49742243
-0.18976536 0.85495704 -0.48299035
-0.23595898 0.85687047 -0.45859769
-0.74903446 0.53334647 0.39333802
-0.74339265 0.57265759 0.34594461
-0.7342748 0.61204726 0.29412085
-0.72826099 0.63153988 0.26659423
-0.71306115 0.66959989 0.20851928
-0.70379657 0.68793851 0.17810564
-0.69338721 0.70565999 0.14689662
-0.68182236 0.72265136 0.11498949
-0.64771253 0.75900662 0.06616326
-0.6330896 0.77336711 0.03318213
-0.61743861 0.78661907 -5E-08
-0.60082227 0.79869157 -0.03323283
-0.58331615 0.80952942 -0.06636441
-0.56500828 0.81909472 -0.09924503
-0.52171624 0.83038598 -0.19644731
-0.50111669 0.83519369 -0.22725365
-0.48020187 0.8387816 -0.25719988
-0.45908415 0.84120315 -0.28619748
-0.39556241 0.84212613 -0.36689436
-0.37463069 0.84057641 -0.39157385
-0.35396591 0.83823013 -0.415108
-0.76442713 0.54419029 0.34606388
-0.75693923 0.58353519 0.29462489
-0.76960623 0.55914605 0.30832121
-0.78888702 0.5395624 0.29462501
-0.80899888 0.50919807 0.29411972
-0.76888388 0.5932005 0.23923498
-0.78250128 0.56851518 0.25393349
-0.80177039 0.54793555 0.23923516
-0.82239896 0.51665217 0.23880367
-0.73816311 0.64155573 0.20935407
-0.76237077 0.61241215 0.20989598
-0.83826429 0.50377756 0.20935303
-0.79339951 0.57643366 0.19555385
-0.81249851 0.55480099 0.17992471
-0.85337323 0.48994198 0.17896745
-0.87175637 0.45675835 0.17811017
-0.73749584 0.65509379 0.1641712
-0.76245868 0.62573397 0.1646625
-0.7863937 0.59530646 0.16490977
-0.83072519 0.53177255 0.16466226
-0.88539547 0.44138151 0.14689289
-0.7276122 0.67306542 0.13252699
-0.75336796 0.64400244 0.13303241
-0.77813458 0.61378121 0.13333841
-0.80178386 0.58252573 0.13344087
-0.82420135 0.5503754 0.1333383
-0.84528977 0.5174818 0.13303214
-0.86497128 0.48400569 0.13252662
-0.8979795 0.42513546 0.11498672
-0.71650183 0.69035757 0.10015783
-0.74301207 0.66167057 0.10062386
-0.76858175 0.63173854 0.10093816
-0.79307199 0.60067987 0.1010964
-0.81635702 0.56863058 0.10109635
-0.83832735 0.53574121 0.10093802
-0.85889274 0.50217336 0.10062363
-0.87798333 0.46809569 0.10015751
-0.91157025 0.39909747 0.09879718
-0.67621946 0.73367274 0.06672055
-0.70416093 0.70685458 0.06718714
-0.73137629 0.67861974 0.06755687
-0.75770909 0.6490584 0.06782474
-0.78301054 0.61828172 0.06798698
-0.80714387 0.5864206 0.0680413
-0.82998782 0.55362266 0.06798693
-0.85143936 0.52004892 0.06782462
-0.87141645 0.48586991 0.06755672
-0.88985902 0.45126137 0.06718691
-0.90673006 0.4164001 0.06672028
-0.92201471 0.38145971 0.06616294
-0.66208994 0.74867576 0.03348926
-0.69060284 0.72244626 0.03375183
-0.71846312 0.69473529 0.03396639
-0.74550742 0.66562289 0.03413002
-0.77157849 0.63521188 0.03424042
-0.79652941 0.60362631 0.03429602
-0.82022709 0.57100898 0.03429601
-0.84255636 0.53751874 0.03424039
-0.86342227 0.503326 0.03412997
-0.88275242 0.46860904 0.03396632
-0.90049767 0.4335492 0.03375174
-0.91663224 0.39832637 0.03348915
-0.93115324 0.36311525 0.033182
-0.64685082 0.76261657 -4E-08
-0.67585814 0.73703164 -4E-08
-0.70429271 0.70990974 -3E-08
-0.73198587 0.68131983 -2E-08
-0.75877327 0.65135479 -1E-08
-0.78449863 0.62013048 -1E-08
-0.80901843 0.58778334 -0
-0.8322053 0.55446774 1E-08
-0.85395157 0.52035242 1E-08
-0.87417209 0.48561636 2E-08
-0.8928048 0.45044366 3E-08
-0.90981239 0.4150196 4E-08
-0.92518115 0.37952572 4E-08
-0.9389199 0.34413585 5E-08
-0.63055819 0.77541459 -0.03359365
-0.65997523 0.75052154 -0.03391246
-0.68890405 0.72404587 -0.03418517
-0.71717304 0.69604522 -0.03440814
-0.74461204 0.66660136 -0.03457826
-0.77105695 0.63582039 -0.03469307
-0.79635465 0.6038307 -0.03475089
-0.82036674 0.57078093 -0.03475087
-0.84297305 0.53683585 -0.034693
-0.86407542 0.50217324 -0.03457813
-0.88359892 0.46697855 -0.03440797
-0.90149355 0.43144041 -0.03418495
-0.91773367 0.3957459 -0.03391219
-0.93231791 0.36007619 -0.03359333
-0.94526649 0.32460254 -0.03323247
-0.61328334 0.78700477 -0.06713494
-0.64301896 0.76284093 -0.06782488
-0.6723547 0.73705989 -0.0684256
-0.70111692 0.70970678 -0.06892914
-0.72913212 0.68085229 -0.06932855
-0.75623024 0.65059143 -0.06961812
-0.78224963 0.61904311 -0.0697936
-0.80704188 0.58634818 -0.06985237
-0.83047527 0.55266595 -0.06979351
-0.85243899 0.51817095 -0.06961794
-0.87284487 0.4830479 -0.06932829
-0.89162987 0.44748721 -0.06892879
-0.90875602 0.41167995 -0.06842517
-0.92421013 0.37581325 -0.06782438
-0.93800223 0.34006584 -0.06713436
-0.95016408 0.30460486 -0.06636377
-0.59511119 0.7973386 -0.10046797
-0.62507015 0.77393138 -0.10157599
-0.65471888 0.74888283 -0.10255545
-0.68388468 0.7222268 -0.10339368
-0.71239173 0.69402128 -0.10407925
-0.74006587 0.66434979 -0.10460246
-0.76673925 0.63332081 -0.10495567
-0.79225427 0.60106564 -0.10513358
-0.81646925 0.56773657 -0.10513353
-0.839261 0.53350282 -0.10495548
-0.86052877 0.49854645 -0.10460216
-0.88019615 0.46305776 -0.10407884
-0.89821184 0.42722982 -0.10339315
-0.91455042 0.39125428 -0.10255481
-0.92921096 0.35531622 -0.10157523
-0.94221467 0.3195903 -0.10046713
-0.95360345 0.28423768 -0.09924407
-0.57613838 0.8063857 -0.13344121
-0.60622293 0.78375167 -0.1350075
-0.63608724 0.75946373 -0.1364105
-0.66556072 0.73354357 -0.13763246
-0.69446778 0.70603728 -0.13865702
-0.72263211 0.6770162 -0.13946991
-0.74988097 0.646577 -0.14005935
-0.77605027 0.61484087 -0.14041662
-0.80098867 0.58195078 -0.14053625
-0.82456255 0.5480693 -0.14041646
-0.84665859 0.51337373 -0.14005907
-0.86718768 0.47805232 -0.1394695
-0.88608497 0.44229838 -0.13865647
-0.90331215 0.40630615 -0.13763174
-0.91885579 0.37026539 -0.13640967
-0.93272638 0.33435735 -0.13500653
-0.94495589 0.29875094 -0.13344009
-0.55647081 0.81413382 -0.16591085
-0.58658308 0.7922796 -0.16796796
-0.61656356 0.76876944 -0.16983214
-0.64624542 0.74361366 -0.17148039
-0.67545521 0.71684641 -0.17289121
-0.70401651 0.68852669 -0.17404526
-0.73175383 0.65873897 -0.17492609
-0.75849813 0.6275931 -0.17552081
-0.78409058 0.59522182 -0.17582038
-0.80838817 0.56177902 -0.17582029
-0.83126658 0.52743584 -0.17552052
-0.85262352 0.49237588 -0.17492566
-0.87238193 0.45679122 -0.17404465
-0.89048964 0.42087656 -0.17289041
-0.90692049 0.38482481 -0.17147942
-0.9216727 0.34882209 -0.16983102
-0.93476766 0.31304398 -0.16796669
-0.95142549 0.26064241 -0.16487665
-0.56626463 0.79951102 -0.20031577
-0.5962621 0.77678573 -0.20267074
-0.62605178 0.75241226 -0.2047803
-0.65546399 0.72641319 -0.20661771
-0.68432391 0.69883531 -0.20815836
-0.71245581 0.66975099 -0.20938078
-0.73968726 0.63925767 -0.21026719
-0.76585436 0.60747713 -0.21080445
-0.79080611 0.57455319 -0.21098439
-0.81440806 0.5406487 -0.21080425
-0.83654708 0.50594157 -0.21026681
-0.85713291 0.47061992 -0.20938018
-0.87610048 0.4348774 -0.20815755
-0.89341027 0.39890796 -0.2066167
-0.90904802 0.36290118 -0.20477913
-0.92302305 0.32703772 -0.20266937
-0.93536633 0.29148594 -0.20031422
-0.94612771 0.2563991 -0.19774185
-0.54538721 0.80545938 -0.2319223
-0.57530504 0.78351653 -0.23478901
-0.60510278 0.75993305 -0.23738658
-0.63461608 0.73472071 -0.23968305
-0.6636737 0.70791459 -0.2416485
-0.69210142 0.67957491 -0.24325615
-0.71972591 0.64978659 -0.24448316
-0.74637979 0.61865938 -0.2453115
-0.7719059 0.58632636 -0.24572879
-0.79616207 0.55294067 -0.24572869
-0.81902456 0.51867241 -0.24531116
-0.84039176 0.4837043 -0.24448259
-0.8601858 0.44822678 -0.24325538
-0.87835389 0.41243297 -0.2416475
-0.89486861 0.37651396 -0.23968181
-0.90972692 0.34065413 -0.23738517
-0.92294812 0.3050271 -0.23478739
-0.93457198 0.26979285 -0.23192047
-0.9491713 0.21849759 -0.22725116
-0.52407277 0.81015438 -0.26267394
-0.55381882 0.78898317 -0.26606479
-0.58352774 0.76618779 -0.26916835
-0.61304235 0.74177057 -0.27194783
-0.64219636 0.71575546 -0.27436814
-0.67081898 0.68819076 -0.2763972
-0.69873792 0.65914905 -0.27800682
-0.72578442 0.62872797 -0.27917388
-0.75179756 0.59704864 -0.27988118
-0.77662861 0.56425345 -0.28011805
-0.80014545 0.53050345 -0.27988094
-0.82223594 0.49597412 -0.2791734
-0.84281021 0.46085075 -0.27800605
-0.86180317 0.42532396 -0.27639624
-0.87917393 0.3895843 -0.27436697
-0.89490658 0.35381806 -0.27194637
-0.90900844 0.31820276 -0.26916671
-0.92150754 0.2829037 -0.26606295
-0.9373858 0.23137653 -0.26094273
-0.51763821 0.80351025 -0.29452854
-0.561459 0.77120483 -0.30001143
-0.59087843 0.74758166 -0.30328912
-0.62002945 0.72236669 -0.30618575
-0.64874607 0.69559687 -0.30866408
-0.67685914 0.66733289 -0.31069064
-0.70420033 0.63765985 -0.31223696
-0.73060697 0.60668677 -0.31328073
-0.75592595 0.57454461 -0.31380647
-0.78001851 0.54138404 -0.31380635
-0.80276352 0.50737172 -0.31328031
-0.82406068 0.47268647 -0.31223628
-0.84383261 0.4375141 -0.31068969
-0.86202592 0.40204304 -0.30866289
-0.87861168 0.36645961 -0.30618432
-0.89358449 0.33094358 -0.30328748
-0.90696025 0.29566413 -0.30000949
-0.92414337 0.24400882 -0.29452282
-0.94189656 0.17667264 -0.28619513
-0.46660781 0.82511711 -0.31899139
-0.50976574 0.7962842 -0.32568434
-0.53902817 0.77502757 -0.3298195
-0.56826133 0.75218922 -0.33360204
-0.59731388 0.72777432 -0.33698773
-0.62602592 0.70180923 -0.33993447
-0.65423298 0.67434329 -0.34240377
-0.68176937 0.6454497 -0.34436196
-0.70847255 0.61522502 -0.34578139
-0.7341873 0.58378834 -0.34664148
-0.75876969 0.55127895 -0.34692949
-0.78209162 0.5178538 -0.34664121
-0.80404347 0.48368326 -0.34578085
-0.82453734 0.44894716 -0.34436119
-0.84350765 0.41382986 -0.34240273
-0.86091292 0.37851599 -0.33993319
-0.87673485 0.3431856 -0.33698615
-0.89097726 0.30801049 -0.33360028
-0.90946901 0.2563487 -0.32784507
-0.9289248 0.18879424 -0.31898618
-0.444924 0.82603091 -0.34641182
-0.50234306 0.78805238 -0.35629234
-0.54532689 0.7556414 -0.36280131
-0.57419091 0.73201799 -0.36668023
-0.60280412 0.70685828 -0.37010592
-0.63100809 0.68020105 -0.37303525
-0.65864128 0.65210772 -0.37542942
-0.685543 0.6226629 -0.37725556
-0.71155775 0.59197342 -0.37848786
-0.73653895 0.56016701 -0.37910843
-0.76035309 0.52738971 -0.37910825
-0.78288329 0.49380258 -0.37848738
-0.80403185 0.45957765 -0.37725481
-0.8237226 0.42489371 -0.37542838
-0.8419019 0.38993177 -0.37303388
-0.85853916 0.35487083 -0.37010434
-0.87362558 0.31988335 -0.36667836
-0.88717335 0.28513205 -0.36279917
-0.90471411 0.23424001 -0.35629109
-0.9230932 0.16788717 -0.34640798
-0.42630148 0.81730199 -0.38802555
-0.45432833 0.79929274 -0.3937102
-0.50832647 0.76874715 -0.38853043
-0.55079806 0.73515099 -0.39518923
-0.57922417 0.71078932 -0.39909616
-0.60733229 0.68494231 -0.40249416
-0.63496649 0.65766042 -0.40533984
-0.66196996 0.62901664 -0.40759534
-0.68818837 0.59910583 -0.40922952
-0.71347463 0.56804389 -0.41021949
-0.73769164 0.53596538 -0.41055101
-0.76071686 0.50302088 -0.41021922
-0.78244483 0.46937376 -0.40922895
-0.80278987 0.43519565 -0.40759438
-0.8216874 0.40066257 -0.40533864
-0.83909476 0.36595041 -0.40249273
-0.85499114 0.33123094 -0.39909446
-0.86704338 0.28549623 -0.408721
-0.88820481 0.2458899 -0.3885282
-0.90828437 0.17949019 -0.37827745
-0.92314672 0.11596713 -0.36689135
-0.45988569 0.77996796 -0.42478308
-0.48786101 0.75970763 -0.4302704
-0.51591182 0.73797822 -0.43535125
-0.54390216 0.71478361 -0.43996942
-0.57170445 0.69013399 -0.44406939
-0.61089522 0.66214627 -0.43401554
-0.63790655 0.63431513 -0.43671441
-0.66423392 0.60520452 -0.43877196
-0.6897307 0.57491809 -0.44015986
-0.71425873 0.54357898 -0.44085869
-0.7376914 0.51132691 -0.44085851
-0.75991726 0.47831523 -0.44015938
-0.7808426 0.44470745 -0.43877119
-0.8003931 0.41067308 -0.4367134
-0.81851524 0.37638351 -0.43401417
-0.83517647 0.34200814 -0.43070951
-0.85036486 0.30771038 -0.42684188
-0.87328297 0.22922437 -0.43026716
-0.88390756 0.19635719 -0.42477846
-0.89678502 0.17419261 -0.40673524
-0.90126485 0.13261606 -0.41279247
-0.9120729 0.11127108 -0.39464131
-0.38318655 0.814237 -0.43638638
-0.41008526 0.79741955 -0.44295573
-0.57478392 0.66705227 -0.47432581
-0.61350244 0.63860017 -0.46454749
-0.63984722 0.61030155 -0.46704128
-0.66546196 0.58081216 -0.46884733
-0.69020867 0.55024314 -0.46994093
-0.71395904 0.51872313 -0.47030708
-0.7365973 0.48639518 -0.46994069
-0.75802308 0.45341337 -0.46884671
-0.77815419 0.41993973 -0.46704045
-0.79501331 0.37428311 -0.47769818
-0.8120243 0.34052324 -0.47432145
-0.82763076 0.30680186 -0.47033033
-0.84183276 0.27326897 -0.46577042
-0.85464549 0.24006359 -0.46069551
-0.88511622 0.14360473 -0.44294983
-0.90658629 0.07761071 -0.41510737
-0.33360374 0.83517247 -0.43751732
-0.41414645 0.77809507 -0.47256103
-0.44115624 0.75912124 -0.47894639
-0.46834996 0.73876554 -0.48493052
-0.4956136 0.71701217 -0.49046367
-0.52283078 0.69386649 -0.4954806
-0.57659948 0.64349753 -0.50375122
-0.60286635 0.61637408 -0.50691634
-0.6408205 0.58575892 -0.49622136
-0.66569573 0.55598122 -0.49772897
-0.68967402 0.52522343 -0.49848789
-0.71263701 0.49361774 -0.49848765
-0.7344799 0.46130857 -0.49772844
-0.75511348 0.42844921 -0.49622053
-0.77446628 0.39519829 -0.49398419
-0.85829371 0.18498676 -0.47894201
-0.86799216 0.15343772 -0.47255644
-0.88383567 0.09249131 -0.45882684
-0.89738858 0.05920073 -0.4375101
-0.34900036 0.80321819 -0.48299211
-0.37516722 0.78679848 -0.49035731
-0.53671849 0.65979749 -0.52622581
-0.61595362 0.58980024 -0.52224201
-0.64087057 0.560826 -0.52417475
-0.66498882 0.53085113 -0.52534461
-0.68818933 0.49999702 -0.52573621
-0.71036404 0.46839768 -0.52534419
-0.73141897 0.43619728 -0.52417392
-0.75127542 0.40354657 -0.52224082
-0.75916231 0.37319934 -0.53359514
-0.77692831 0.33989376 -0.53026032
-0.79335999 0.3065615 -0.52622515
-0.80844116 0.27335852 -0.52153778
-0.82217723 0.2404168 -0.51625413
-0.83458352 0.20787166 -0.51043493
-0.86422628 0.1136735 -0.49035084
-0.88784939 0.04037366 -0.45859438
